# .PCD v0.7 - Point Cloud Data file format
VERSION 0.7
FIELDS x y z rgb
SIZE 4 4 4 4
TYPE F F F U
COUNT 1 1 1 1
WIDTH 1231
HEIGHT 1
VIEWPOINT 0 0 0 1 0 0 0
POINTS 1231
DATA ascii
23.26 13.002 -0.82300001 4294901760
23.621 13.302 -0.84100002 4294901760
23.646999 13.415 -0.84399998 4294901760
23.48 13.418 -0.83899999 4294901760
23.521 13.539 -0.84200001 4294901760
23.518999 13.587 -0.84299999 4294901760
23.577999 13.721 -0.84799999 4294901760
23.671 13.875 -0.85399997 4294901760
23.718 14.003 -0.85799998 4294901760
23.686001 14.084 -0.85799998 4294901760
23.695 14.191 -0.861 4294901760
23.659 14.27 -0.861 4294901760
23.693001 14.342 -0.86400002 4294901760
23.746 14.476 -0.86799997 4294901760
23.646 14.517 -0.866 4294901760
20.539 12.695 -0.727 4294901760
20.43 12.716 -0.72399998 4294901760
20.517 12.86 -0.72899997 4294901760
20.231001 12.769 -0.71799999 4294901760
16.115 13.218 -0.59899998 4294901760
16.059 13.257 -0.59899998 4294901760
15.793 13.121 -0.588 4294901760
15.754 13.171 -0.588 4294901760
17.059999 -7.2800002 -0.51099998 4294901760
16.99 -7.1869998 -0.50700003 4294901760
17.013 -7.0710001 -0.50599998 4294901760
15.264 -5.8470001 -0.426 4294901760
15.265 -5.7930002 -0.42500001 4294901760
15.368 -5.776 -0.42899999 4294901760
15.376 -5.7249999 -0.42899999 4294901760
16.872999 -5.5650001 -0.48100001 4294901760
17.027 -5.5560002 -0.486 4294901760
17.132 -5.5310001 -0.49000001 4294901760
22.271999 -6.9130001 -0.69499999 4294901760
23.337 -7.1620002 -0.73699999 4294901760
23.329 -7.079 -0.736 4294901760
23.334 -7.0009999 -0.73500001 4294901760
23.318001 -6.9559999 -0.73400003 4294901760
23.305 -6.8730001 -0.73299998 4294901760
23.298 -6.7909999 -0.73199999 4294901760
23.302 -6.7129998 -0.73100001 4294901760
23.294001 -6.631 -0.73000002 4294901760
23.294001 -6.552 -0.72899997 4294901760
23.287001 -6.5110002 -0.72799999 4294901760
23.278 -6.4299998 -0.727 4294901760
23.278999 -6.3509998 -0.72600001 4294901760
23.274 -6.2709999 -0.72500002 4294901760
23.26 -6.1900001 -0.72399998 4294901760
23.266001 -6.1129999 -0.72299999 4294901760
23.266001 -6.0349998 -0.72299999 4294901760
23.25 -5.9920001 -0.722 4294901760
23.215 -5.1729999 -0.713 4294901760
23.299 -5.1149998 -0.71600002 4294901760
23.556999 -5.132 -0.72500002 4294901760
15.635 -2.8789999 -0.40900001 4294901760
40.634998 -0.082000002 -1.362 4294901760
25.063999 1.862 -0.91399997 4294901760
25.277 1.957 -0.92400002 4294901760
24.438999 2.0869999 -0.88700002 4294901760
24.422001 2.1619999 -0.88700002 4294901760
24.400999 2.2379999 -0.88599998 4294901760
24.464001 2.3210001 -0.889 4294901760
25.033001 2.454 -0.91500002 4294901760
24.349001 2.4260001 -0.88499999 4294901760
24.968 2.566 -0.91299999 4294901760
32.146999 6.8709998 -1.2589999 4294901760
32.284 7.006 -1.266 4294901760
29.690001 6.494 -1.148 4294901760
29.278999 6.5009999 -1.13 4294901760
29.120001 6.5619998 -1.124 4294901760
29.051001 6.6420002 -1.122 4294901760
29.044001 6.737 -1.122 4294901760
29.024 6.8280001 -1.123 4294901760
28.995001 6.9180002 -1.122 4294901760
28.978001 6.9619999 -1.122 4294901760
28.962 7.0539999 -1.122 4294901760
28.947001 7.1469998 -1.123 4294901760
28.927 7.2389998 -1.123 4294901760
29.111 7.382 -1.132 4294901760
29.030001 7.4580002 -1.1289999 4294901760
28.941 7.4840002 -1.126 4294901760
28.927 7.5770001 -1.126 4294901760
27.868999 7.395 -1.079 4294901760
27.153 7.2969999 -1.0470001 4294901760
26.848 7.3060002 -1.034 4294901760
25.496 7.0250001 -0.97299999 4294901760
25.080999 6.9959998 -0.95499998 4294901760
24.608999 6.9899998 -0.93400002 4294901760
24.666 7.0900002 -0.93800002 4294901760
24.391001 7.3439999 -0.92900002 4294901760
24.148001 9.0459995 -0.94300002 4294901760
24.129 9.1260004 -0.94400001 4294901760
24.111 9.2060003 -0.94400001 4294901760
24.099001 9.2880001 -0.94499999 4294901760
24.162001 9.7060003 -0.95499998 4294901760
24.281 9.8430004 -0.96200001 4294901760
24.455 10.003 -0.972 4294901760
32.381001 13.295 -1.353 4294901760
32.134998 13.312 -1.3430001 4294901760
31.806 13.293 -1.33 4294901760
31.506001 13.285 -1.317 4294901760
31.195999 13.269 -1.304 4294901760
30.884001 13.252 -1.291 4294901760
30.594 13.242 -1.279 4294901760
30.322001 13.181 -1.267 4294901760
30.059 13.179 -1.256 4294901760
26.497999 12.935 -1.108 4294901760
26.271 12.927 -1.099 4294901760
18.247 9.059 -0.70200002 4294901760
18.188 9.1009998 -0.70099998 4294901760
18.1 9.1280003 -0.69800001 4294901760
18.077 9.1520004 -0.69800001 4294901760
18.045 9.2069998 -0.69700003 4294901760
18.004999 9.2580004 -0.69700003 4294901760
18.003 9.3290005 -0.69800001 4294901760
18 9.3990002 -0.69999999 4294901760
23.375 12.715 -0.98000002 4294901760
23.285999 12.762 -0.977 4294901760
23.284 12.856 -0.97899997 4294901760
23.268999 12.896 -0.98000002 4294901760
23.184999 12.945 -0.977 4294901760
22.966999 12.918 -0.96799999 4294901760
22.721001 12.874 -0.958 4294901760
22.468 12.824 -0.94700003 4294901760
22.315001 12.83 -0.94099998 4294901760
22.114 12.807 -0.93300003 4294901760
21.968 12.769 -0.92699999 4294901760
21.798 12.762 -0.92000002 4294901760
21.629999 12.756 -0.91299999 4294901760
23.629 14.032 -1.0190001 4294901760
21.062 12.601 -0.88800001 4294901760
20.884001 12.583 -0.88099998 4294901760
20.707001 12.521 -0.87300003 4294901760
20.589001 12.538 -0.86900002 4294901760
20.51 12.579 -0.86699998 4294901760
20.521999 12.675 -0.86900002 4294901760
20.462999 12.728 -0.86799997 4294901760
20.169001 12.633 -0.85500002 4294901760
20.122 12.692 -0.85500002 4294901760
15.71 12.805 -0.69800001 4294901760
15.696 12.876 -0.699 4294901760
15.684 12.948 -0.70099998 4294901760
15.688 13.034 -0.704 4294901760
15.668 13.101 -0.70499998 4294901760
13.343 -5.8569999 -0.44499999 4294901760
13.361 -5.8150001 -0.44499999 4294901760
13.425 -5.7930002 -0.447 4294901760
13.519 -5.8080001 -0.45100001 4294901760
13.618 -5.8000002 -0.45500001 4294901760
13.691 -5.7810001 -0.45699999 4294901760
13.724 -5.744 -0.458 4294901760
13.83 -5.7379999 -0.46200001 4294901760
13.939 -5.7319999 -0.46700001 4294901760
14.005 -5.7329998 -0.46900001 4294901760
14.099 -5.7199998 -0.47299999 4294901760
14.416 -5.6919999 -0.486 4294901760
14.558 -5.6950002 -0.49200001 4294901760
14.658 -5.6810002 -0.49599999 4294901760
14.766 -5.697 -0.5 4294901760
14.811 -5.6609998 -0.50199997 4294901760
14.932 -5.6529999 -0.50700003 4294901760
15.122 -5.671 -0.51499999 4294901760
15.166 -5.6339998 -0.51599997 4294901760
15.305 -5.631 -0.52200001 4294901760
15.454 -5.631 -0.528 4294901760
15.551 -5.6389999 -0.53200001 4294901760
15.58 -5.5939999 -0.53299999 4294901760
15.697 -5.5809999 -0.537 4294901760
15.831 -5.573 -0.54299998 4294901760
16.111 -5.6149998 -0.55500001 4294901760
16.320999 -5.631 -0.56400001 4294901760
16.429001 -5.6110001 -0.56900001 4294901760
16.518 -5.612 -0.57200003 4294901760
16.690001 -5.612 -0.57999998 4294901760
16.837 -5.6030002 -0.58600003 4294901760
16.966 -5.5869999 -0.59100002 4294901760
17.134001 -5.5830002 -0.59799999 4294901760
17.177999 -5.5380001 -0.59899998 4294901760
12.957 -4.1479998 -0.40200001 4294901760
13.052 -4.1329999 -0.405 4294901760
12.996 -4.0710001 -0.40200001 4294901760
22.361 -6.9460001 -0.838 4294901760
23.305 -7.1599998 -0.88099998 4294901760
23.306 -7.0809999 -0.88 4294901760
23.305 -7.0009999 -0.87900001 4294901760
23.285999 -6.9549999 -0.87699997 4294901760
23.285999 -6.875 -0.87599999 4294901760
23.287001 -6.796 -0.875 4294901760
23.275 -6.7129998 -0.87400001 4294901760
23.273001 -6.6339998 -0.87300003 4294901760
23.277 -6.5560002 -0.87199998 4294901760
23.261999 -6.5120001 -0.87099999 4294901760
23.254999 -6.4310002 -0.87 4294901760
23.256001 -6.3530002 -0.86900002 4294901760
23.249001 -6.2729998 -0.86699998 4294901760
23.257 -6.1960001 -0.86699998 4294901760
23.250999 -6.1170001 -0.866 4294901760
23.240999 -6.0359998 -0.86400002 4294901760
23.231001 -5.9949999 -0.86400002 4294901760
23.233 -5.9169998 -0.86299998 4294901760
23.216 -5.835 -0.861 4294901760
23.076 -5.723 -0.85399997 4294901760
22.254999 -5.4439998 -0.815 4294901760
23.205999 -5.6009998 -0.85799998 4294901760
23.205999 -5.5240002 -0.85699999 4294901760
23.197001 -5.4829998 -0.85699999 4294901760
23.202999 -5.4070001 -0.85600001 4294901760
23.195999 -5.329 -0.85500002 4294901760
23.193001 -5.2519999 -0.85399997 4294901760
23.857 -5.1279998 -0.88200003 4294901760
23.9 -5.0580001 -0.88300002 4294901760
24.415001 1.834 -1.026 4294901760
24.402 2.0250001 -1.026 4294901760
24.455 2.1849999 -1.029 4294901760
24.33 2.2509999 -1.023 4294901760
24.448 2.339 -1.03 4294901760
24.326 2.404 -1.024 4294901760
24.322001 2.4430001 -1.024 4294901760
24.424999 2.5309999 -1.03 4294901760
29.135 6.6009998 -1.296 4294901760
29.075001 6.684 -1.294 4294901760
29.028999 6.7690001 -1.293 4294901760
29.003 6.8590002 -1.293 4294901760
28.974001 6.948 -1.293 4294901760
28.973 6.9959998 -1.293 4294901760
28.962 7.0900002 -1.294 4294901760
28.837 7.1550002 -1.288 4294901760
28.945999 7.2789998 -1.295 4294901760
28.881001 7.3590002 -1.293 4294901760
28.915001 7.4650002 -1.296 4294901760
29.108 7.6129999 -1.307 4294901760
28.870001 7.599 -1.295 4294901760
27.059 7.211 -1.2029999 4294901760
26.836 7.2420001 -1.192 4294901760
26.68 7.29 -1.1849999 4294901760
26.493999 7.3280001 -1.177 4294901760
24.639999 6.9390001 -1.082 4294901760
24.534 6.9920001 -1.077 4294901760
24.5 7.066 -1.077 4294901760
24.615 7.2670002 -1.085 4294901760
24.362 7.2750001 -1.073 4294901760
24.35 7.355 -1.074 4294901760
24.325001 7.3889999 -1.073 4294901760
24.313999 7.4689999 -1.074 4294901760
24.315001 7.553 -1.075 4294901760
24.299 7.632 -1.075 4294901760
24.273001 7.7080002 -1.075 4294901760
24.277 7.7930002 -1.077 4294901760
24.25 7.869 -1.077 4294901760
24.236 7.9060001 -1.077 4294901760
24.224001 7.987 -1.077 4294901760
24.228001 8.0719995 -1.079 4294901760
24.208 8.1499996 -1.079 4294901760
24.195 8.2309999 -1.08 4294901760
24.174999 8.309 -1.08 4294901760
24.156 8.3450003 -1.08 4294901760
24.149 8.427 -1.081 4294901760
24.125999 8.5039997 -1.081 4294901760
24.129 8.5909996 -1.0829999 4294901760
24.134001 8.6780005 -1.084 4294901760
24.099001 8.7510004 -1.084 4294901760
24.098 8.8360004 -1.085 4294901760
24.091 8.8769999 -1.086 4294901760
26.422001 12.935 -1.274 4294901760
18.268 9.0059996 -0.81900001 4294901760
18.198999 9.0430002 -0.81699997 4294901760
18.159 9.0939999 -0.81599998 4294901760
18.1 9.1359997 -0.815 4294901760
18.073999 9.158 -0.81400001 4294901760
18.034 9.21 -0.81300002 4294901760
18.01 9.2690001 -0.81400001 4294901760
17.987 9.3280001 -0.81400001 4294901760
17.976999 9.3950005 -0.815 4294901760
23.323999 12.717 -1.13 4294901760
23.281 12.788 -1.13 4294901760
23.257999 12.871 -1.131 4294901760
23.271 12.926 -1.133 4294901760
23.375999 13.081 -1.142 4294901760
23.431 13.208 -1.147 4294901760
23.405001 13.291 -1.148 4294901760
23.533001 13.461 -1.158 4294901760
23.625 13.613 -1.166 4294901760
23.469 13.671 -1.16 4294901760
23.509001 13.793 -1.165 4294901760
23.49 13.881 -1.166 4294901760
23.561001 14.024 -1.173 4294901760
23.565001 14.126 -1.176 4294901760
20.858999 12.59 -1.02 4294901760
20.707001 12.587 -1.013 4294901760
20.611 12.573 -1.0089999 4294901760
20.566 12.634 -1.008 4294901760
20.563 12.722 -1.011 4294901760
20.537001 12.795 -1.011 4294901760
15.206 12.481 -0.78399998 4294901760
15.64 12.921 -0.815 4294901760
15.667 13.027 -0.81999999 4294901760
12.987 -5.7600002 -0.50999999 4294901760
13.124 -5.7709999 -0.51599997 4294901760
13.151 -5.7340002 -0.51700002 4294901760
13.283 -5.7420001 -0.523 4294901760
13.371 -5.7550001 -0.528 4294901760
13.407 -5.7210002 -0.52899998 4294901760
13.576 -5.7420001 -0.537 4294901760
13.681 -5.7350001 -0.54100001 4294901760
13.977 -5.8080001 -0.55699998 4294901760
13.837 -5.6989999 -0.54799998 4294901760
8.6999998 -2.6530001 -0.25299999 4294901760
8.7159996 -2.628 -0.25400001 4294901760
8.7550001 -2.6240001 -0.25600001 4294901760
8.7799997 -2.602 -0.25600001 4294901760
8.8479996 -2.592 -0.25999999 4294901760
8.9060001 -2.5780001 -0.26199999 4294901760
8.9619999 -2.5639999 -0.26499999 4294901760
9.0010004 -2.5439999 -0.266 4294901760
9.0909996 -2.539 -0.271 4294901760
23.224001 -6.4039998 -1.006 4294901760
23.223 -6.3249998 -1.005 4294901760
23.225 -6.2480001 -1.0039999 4294901760
23.223 -6.1690001 -1.003 4294901760
23.226999 -6.092 -1.002 4294901760
23.212999 -6.0100002 -1.001 4294901760
23.205 -5.9310002 -0.99900001 4294901760
23.207001 -5.8920002 -0.99900001 4294901760
23.202 -5.8140001 -0.99800003 4294901760
22.802999 -5.638 -0.97600001 4294901760
22.353001 -5.4530001 -0.95200002 4294901760
23.188999 -5.579 -0.99400002 4294901760
23.181999 -5.5 -0.99299997 4294901760
23.169001 -5.4580002 -0.99199998 4294901760
23.174 -5.3829999 -0.991 4294901760
23.162001 -5.303 -0.99000001 4294901760
23.160999 -5.151 -0.98799998 4294901760
23.355 -5.1160002 -0.99699998 4294901760
23.848 -5.0279999 -1.02 4294901760
15.538 -3.234 -0.59399998 4294901760
15.489 -3.1730001 -0.59100002 4294901760
15.46 -3.066 -0.588 4294901760
15.459 -3.0409999 -0.588 4294901760
15.488 -2.9960001 -0.58899999 4294901760
15.544 -2.9560001 -0.59100002 4294901760
24.697001 1.794 -1.197 4294901760
24.302999 1.8430001 -1.175 4294901760
24.285 1.918 -1.174 4294901760
24.516001 2.0139999 -1.188 4294901760
24.639999 2.063 -1.1950001 4294901760
24.540001 2.2880001 -1.191 4294901760
24.385 2.3510001 -1.182 4294901760
24.261 2.4159999 -1.176 4294901760
24.278999 2.4560001 -1.177 4294901760
24.736 2.5799999 -1.2029999 4294901760
26.886 7.2690001 -1.372 4294901760
26.745001 7.3210001 -1.365 4294901760
24.584 7.1069999 -1.244 4294901760
24.584999 7.191 -1.245 4294901760
24.410999 7.223 -1.2359999 4294901760
24.386 7.2989998 -1.2359999 4294901760
24.396999 7.3860002 -1.238 4294901760
24.388 7.4250002 -1.238 4294901760
24.549 7.5580001 -1.249 4294901760
24.424 7.6040001 -1.243 4294901760
24.302999 7.6500001 -1.238 4294901760
24.209999 8.1680002 -1.242 4294901760
24.181 8.4130001 -1.245 4294901760
24.156 8.5319996 -1.2460001 4294901760
24.163 8.6199999 -1.248 4294901760
24.125999 8.6920004 -1.247 4294901760
24.101 8.7690001 -1.247 4294901760
24.101 8.8549995 -1.249 4294901760
24.101999 8.8979998 -1.25 4294901760
24.069 8.9720001 -1.249 4294901760
24.063 9.0559998 -1.251 4294901760
24.047001 9.1359997 -1.252 4294901760
24.041 9.2200003 -1.253 4294901760
24.016001 9.2969999 -1.253 4294901760
23.988001 9.4169998 -1.2539999 4294901760
24.148001 9.5670004 -1.266 4294901760
24.283001 9.7089996 -1.276 4294901760
24.169001 9.7510004 -1.271 4294901760
24.16 9.8360004 -1.272 4294901760
24.216 9.948 -1.277 4294901760
24.107 9.9919996 -1.273 4294901760
23.910999 9.9540005 -1.261 4294901760
23.929001 10.05 -1.265 4294901760
23.940001 10.143 -1.267 4294901760
23.978001 10.248 -1.271 4294901760
18.179001 9.059 -0.94499999 4294901760
18.1 9.0909996 -0.94199997 4294901760
18.068001 9.1459999 -0.94199997 4294901760
18.040001 9.1669998 -0.94099998 4294901760
18.016001 9.2270002 -0.94199997 4294901760
18.004999 9.2919998 -0.94300002 4294901760
17.983999 9.3529997 -0.94300002 4294901760
23.275999 12.707 -1.296 4294901760
23.27 13.327 -1.313 4294901760
23.237 13.405 -1.314 4294901760
23.214001 13.489 -1.3150001 4294901760
23.278999 13.576 -1.321 4294901760
23.524 13.818 -1.34 4294901760
23.357 13.819 -1.331 4294901760
23.243999 13.851 -1.327 4294901760
20.929001 12.564 -1.177 4294901760
20.784 12.565 -1.17 4294901760
20.628 12.56 -1.163 4294901760
20.586 12.579 -1.161 4294901760
20.559999 12.652 -1.1619999 4294901760
15.673 12.896 -0.94499999 4294901760
15.614 12.93 -0.94300002 4294901760
15.511 12.927 -0.93900001 4294901760
12.478 -5.8070002 -0.57499999 4294901760
12.576 -5.8049998 -0.57999998 4294901760
12.642 -5.7870002 -0.583 4294901760
12.754 -5.7909999 -0.58899999 4294901760
12.863 -5.7919998 -0.59500003 4294901760
12.905 -5.7859998 -0.597 4294901760
13.042 -5.7989998 -0.60399997 4294901760
13.098 -5.7750001 -0.60600001 4294901760
13.071 -5.7129998 -0.60399997 4294901760
8.1219997 -3.5090001 -0.29699999 4294901760
8.1049995 -3.4719999 -0.296 4294901760
8.0719995 -3.427 -0.29300001 4294901760
8.0609999 -3.4070001 -0.292 4294901760
8.0380001 -3.368 -0.28999999 4294901760
8.0559998 -3.346 -0.28999999 4294901760
8.0360003 -3.3080001 -0.28799999 4294901760
8.0380001 -3.279 -0.28799999 4294901760
8.0249996 -3.244 -0.287 4294901760
8.0369997 -3.2349999 -0.287 4294901760
8.0270004 -3.201 -0.28600001 4294901760
8.0200005 -3.1689999 -0.285 4294901760
8.0489998 -3.122 -0.285 4294901760
8.0419998 -3.0910001 -0.28400001 4294901760
8.0500002 -3.0650001 -0.28400001 4294901760
8.0459995 -3.0480001 -0.28400001 4294901760
8.0550003 -3.023 -0.28400001 4294901760
8.0609999 -2.9960001 -0.28299999 4294901760
8.0679998 -2.97 -0.28299999 4294901760
8.0810003 -2.9460001 -0.28299999 4294901760
8.0979996 -2.924 -0.28400001 4294901760
8.0909996 -2.9070001 -0.28299999 4294901760
8.1079998 -2.8840001 -0.28400001 4294901760
8.1260004 -2.862 -0.28400001 4294901760
8.1429996 -2.839 -0.285 4294901760
8.1560001 -2.8150001 -0.285 4294901760
8.1630001 -2.789 -0.285 4294901760
8.1789999 -2.766 -0.285 4294901760
8.1809998 -2.7520001 -0.285 4294901760
8.1990004 -2.73 -0.28600001 4294901760
8.2119999 -2.7049999 -0.28600001 4294901760
8.2390003 -2.6849999 -0.287 4294901760
8.2469997 -2.6600001 -0.287 4294901760
8.2729998 -2.6389999 -0.28799999 4294901760
8.2910004 -2.6159999 -0.289 4294901760
8.3120003 -2.609 -0.28999999 4294901760
8.3389997 -2.5880001 -0.29100001 4294901760
8.3660002 -2.5680001 -0.292 4294901760
8.4049997 -2.5510001 -0.294 4294901760
8.4359999 -2.5320001 -0.29499999 4294901760
8.4549999 -2.5090001 -0.296 4294901760
8.4799995 -2.487 -0.29699999 4294901760
8.5360003 -2.4890001 -0.30000001 4294901760
8.5819998 -2.473 -0.30199999 4294901760
8.6569996 -2.4660001 -0.30599999 4294901760
8.7049999 -2.45 -0.308 4294901760
8.7589998 -2.4360001 -0.31099999 4294901760
8.8470001 -2.431 -0.31600001 4294901760
8.9180002 -2.4349999 -0.31999999 4294901760
8.9820004 -2.4230001 -0.32300001 4294901760
9.0679998 -2.4159999 -0.32800001 4294901760
9.1409998 -2.405 -0.33199999 4294901760
9.2110004 -2.392 -0.33500001 4294901760
9.3070002 -2.3859999 -0.34 4294901760
23.200001 -5.8720002 -1.15 4294901760
23.193001 -5.7919998 -1.149 4294901760
22.197001 -5.4689999 -1.09 4294901760
23.200001 -5.6389999 -1.147 4294901760
23.184 -5.559 -1.145 4294901760
23.18 -5.4809999 -1.1440001 4294901760
23.17 -5.4400001 -1.143 4294901760
23.167 -5.362 -1.142 4294901760
23.176001 -5.2880001 -1.141 4294901760
23.160999 -5.2080002 -1.1390001 4294901760
23.233999 -5.1479998 -1.143 4294901760
23.492001 -5.1279998 -1.1569999 4294901760
23.891001 -5.0970001 -1.178 4294901760
15.494 -3.2460001 -0.69199997 4294901760
15.4 -3.175 -0.68599999 4294901760
15.502 -2.994 -0.69 4294901760
24.421 1.911 -1.313 4294901760
24.908001 2.029 -1.3430001 4294901760
24.893999 2.1059999 -1.3430001 4294901760
24.346001 2.1359999 -1.309 4294901760
24.290001 2.2079999 -1.306 4294901760
24.476999 2.303 -1.318 4294901760
24.84 2.4159999 -1.341 4294901760
24.385 2.4100001 -1.313 4294901760
24.777 6.9349999 -1.3890001 4294901760
24.601 6.9699998 -1.3789999 4294901760
24.549 7.0380001 -1.377 4294901760
24.655001 7.152 -1.385 4294901760
24.455999 7.2620001 -1.375 4294901760
24.478001 7.3520002 -1.378 4294901760
24.424 7.3769999 -1.376 4294901760
24.441 7.4660001 -1.378 4294901760
24.601999 7.5999999 -1.39 4294901760
24.448999 7.6370001 -1.382 4294901760
24.457001 7.724 -1.3839999 4294901760
24.354 7.776 -1.3789999 4294901760
24.323999 7.8509998 -1.378 4294901760
24.334999 7.8959999 -1.38 4294901760
24.332001 7.98 -1.381 4294901760
24.311001 8.0579996 -1.382 4294901760
24.287001 8.1350002 -1.382 4294901760
24.275 8.2150002 -1.383 4294901760
24.268 8.2980003 -1.3839999 4294901760
24.253 8.3780003 -1.385 4294901760
24.246 8.4180002 -1.385 4294901760
24.236 8.5 -1.386 4294901760
24.237 8.5869999 -1.388 4294901760
24.212 8.6630001 -1.388 4294901760
24.183001 8.7390003 -1.388 4294901760
24.17 8.8199997 -1.3890001 4294901760
24.171 8.8640003 -1.39 4294901760
24.17 8.9490004 -1.392 4294901760
24.128 9.0200005 -1.391 4294901760
24.122 9.1040001 -1.392 4294901760
24.097 9.1820002 -1.392 4294901760
24.101999 9.2700005 -1.395 4294901760
24.082001 9.349 -1.395 4294901760
24.070999 9.3889999 -1.396 4294901760
23.907 9.6719999 -1.393 4294901760
23.924999 9.8549995 -1.398 4294901760
18.299 9.1289997 -1.062 4294901760
21.941999 12.826 -1.37 4294901760
21.601999 12.809 -1.351 4294901760
21.455999 12.814 -1.3430001 4294901760
21.07 12.673 -1.318 4294901760
20.841999 12.625 -1.3049999 4294901760
20.716999 12.593 -1.2970001 4294901760
20.601999 12.612 -1.2920001 4294901760
20.614 12.708 -1.295 4294901760
12.492 -5.8260002 -0.64999998 4294901760
12.585 -5.8210001 -0.65499997 4294901760
12.678 -5.8150001 -0.66000003 4294901760
12.761 -5.8049998 -0.66500002 4294901760
12.798 -5.7969999 -0.66600001 4294901760
13.106 -5.8870001 -0.68599999 4294901760
13.013 -5.796 -0.67900002 4294901760
7.875 -3.4300001 -0.329 4294901760
7.875 -3.4159999 -0.32800001 4294901760
7.849 -3.375 -0.32600001 4294901760
7.8449998 -3.3440001 -0.32499999 4294901760
7.8499999 -3.3169999 -0.32499999 4294901760
7.8530002 -3.29 -0.324 4294901760
7.8470001 -3.2579999 -0.32300001 4294901760
7.855 -3.233 -0.32300001 4294901760
7.8449998 -3.214 -0.322 4294901760
7.842 -3.1849999 -0.32100001 4294901760
7.8579998 -3.1619999 -0.32100001 4294901760
7.8590002 -3.1340001 -0.32100001 4294901760
7.8699999 -3.1099999 -0.32100001 4294901760
7.8590002 -3.0769999 -0.31999999 4294901760
7.8730001 -3.0539999 -0.31999999 4294901760
7.881 -3.043 -0.31999999 4294901760
7.8829999 -3.0150001 -0.31999999 4294901760
7.882 -2.9860001 -0.31900001 4294901760
7.8969998 -2.964 -0.31900001 4294901760
7.895 -2.9349999 -0.31799999 4294901760
7.9169998 -2.915 -0.31900001 4294901760
7.9120002 -2.8989999 -0.31900001 4294901760
7.9120002 -2.8710001 -0.31799999 4294901760
7.928 -2.848 -0.31900001 4294901760
7.9619999 -2.832 -0.31999999 4294901760
7.9520001 -2.8 -0.31900001 4294901760
7.947 -2.7709999 -0.31799999 4294901760
7.9770002 -2.753 -0.31900001 4294901760
7.9850001 -2.7420001 -0.31999999 4294901760
7.9840002 -2.7130001 -0.31900001 4294901760
8 -2.691 -0.31999999 4294901760
8.0200005 -2.6689999 -0.31999999 4294901760
8.0340004 -2.6459999 -0.32100001 4294901760
8.0550003 -2.625 -0.322 4294901760
8.0769997 -2.6040001 -0.322 4294901760
8.0979996 -2.5969999 -0.32300001 4294901760
8.1230001 -2.5769999 -0.32499999 4294901760
8.1450005 -2.5550001 -0.32499999 4294901760
8.1639996 -2.533 -0.32600001 4294901760
8.1969995 -2.5150001 -0.32800001 4294901760
8.2299995 -2.497 -0.329 4294901760
8.2489996 -2.4879999 -0.33000001 4294901760
8.4060001 -2.4489999 -0.33899999 4294901760
8.4829998 -2.4430001 -0.34299999 4294901760
8.5439997 -2.431 -0.347 4294901760
8.6140003 -2.421 -0.35100001 4294901760
8.6730003 -2.4230001 -0.354 4294901760
8.7559996 -2.4159999 -0.359 4294901760
8.8540001 -2.4130001 -0.36500001 4294901760
8.9160004 -2.4000001 -0.36899999 4294901760
8.9750004 -2.3859999 -0.37200001 4294901760
9.0620003 -2.378 -0.377 4294901760
9.4399996 -2.365 -0.39899999 4294901760
23.219 -5.5469999 -1.274 4294901760
13.787 -3.2590001 -0.67400002 4294901760
23.216 -5.4310002 -1.272 4294901760
23.208 -5.3520002 -1.271 4294901760
23.205 -5.2750001 -1.2690001 4294901760
23.208 -5.1989999 -1.2690001 4294901760
23.243999 -5.1300001 -1.27 4294901760
23.500999 -5.1100001 -1.285 4294901760
23.761 -5.1269999 -1.301 4294901760
23.922001 -5.0830002 -1.3099999 4294901760
15.618 -3.276 -0.78500003 4294901760
15.568 -3.2149999 -0.78100002 4294901760
18.992001 7.948 -1.214 4294901760
18.813999 9.2639999 -1.2410001 4294901760
12.323 -5.8530002 -0.73699999 4294901760
12.354 -5.8200002 -0.73699999 4294901760
12.468 -5.8260002 -0.745 4294901760
12.618 -5.849 -0.755 4294901760
12.798 -5.8829999 -0.76700002 4294901760
7.704 -2.7939999 -0.36199999 4294901760
7.7150002 -2.77 -0.36199999 4294901760
7.7509999 -2.77 -0.36399999 4294901760
7.73 -2.7349999 -0.36199999 4294901760
7.8990002 -2.5599999 -0.36899999 4294901760
8.3830004 -2.4300001 -0.398 4294901760
8.908 -2.523 -0.435 4294901760
8.8879995 -2.487 -0.433 4294901760
8.7379999 -2.385 -0.421 4294901760
8.8009996 -2.388 -0.42500001 4294901760
8.8579998 -2.3740001 -0.42899999 4294901760
8.9329996 -2.3640001 -0.43399999 4294901760
8.9910002 -2.349 -0.43700001 4294901760
9.5290003 -2.3800001 -0.47400001 4294901760
22.365 -5.25 -1.378 4294901760
22.382999 -5.217 -1.3789999 4294901760
22.518999 -5.1739998 -1.388 4294901760
22.635 -5.1259999 -1.395 4294901760
22.632999 -5.0510001 -1.393 4294901760
22.660999 -4.9819999 -1.3940001 4294901760
22.691999 -4.915 -1.395 4294901760
22.691999 -4.8769999 -1.395 4294901760
15.578 -3.289 -0.89300001 4294901760
15.531 -3.2279999 -0.889 4294901760
15.452 -3.161 -0.88300002 4294901760
12.292 -5.8759999 -0.80199999 4294901760
12.37 -5.8649998 -0.80699998 4294901760
12.46 -5.8839998 -0.81400001 4294901760
12.517 -5.8629999 -0.81699997 4294901760
12.687 -5.8940001 -0.829 4294901760
12.956 -5.9679999 -0.85000002 4294901760
7.8210001 -3.585 -0.43200001 4294901760
7.802 -3.546 -0.43000001 4294901760
7.7849998 -3.5239999 -0.428 4294901760
7.7870002 -3.4960001 -0.42699999 4294901760
7.8460002 -3.4920001 -0.43099999 4294901760
7.8309999 -3.4560001 -0.42899999 4294901760
7.8330002 -3.428 -0.428 4294901760
7.7649999 -3.369 -0.42199999 4294901760
7.7480001 -3.3329999 -0.41999999 4294901760
7.7509999 -3.3199999 -0.41999999 4294901760
7.7519999 -3.2920001 -0.419 4294901760
7.7459998 -3.26 -0.41800001 4294901760
7.7399998 -3.2290001 -0.41600001 4294901760
7.75 -3.2049999 -0.41600001 4294901760
7.7579999 -3.1800001 -0.41600001 4294901760
7.7420001 -3.145 -0.414 4294901760
7.7360001 -3.128 -0.41299999 4294901760
7.7470002 -3.105 -0.41299999 4294901760
7.7420001 -3.075 -0.412 4294901760
7.743 -3.0469999 -0.41100001 4294901760
7.7859998 -3.0350001 -0.414 4294901760
7.7519999 -2.994 -0.41100001 4294901760
7.7509999 -2.98 -0.41 4294901760
8.6960001 -3.3080001 -0.484 4294901760
8.6999998 -3.279 -0.484 4294901760
7.875 -2.9419999 -0.41800001 4294901760
7.7839999 -2.881 -0.41 4294901760
7.777 -2.8499999 -0.40900001 4294901760
7.7800002 -2.8239999 -0.40799999 4294901760
7.7690001 -2.806 -0.40700001 4294901760
7.789 -2.786 -0.40799999 4294901760
7.796 -2.7609999 -0.40799999 4294901760
7.7969999 -2.734 -0.40700001 4294901760
7.8210001 -2.714 -0.40799999 4294901760
7.8200002 -2.687 -0.40799999 4294901760
7.8109999 -2.6559999 -0.40599999 4294901760
8.0640001 -2.6989999 -0.42500001 4294901760
7.8429999 -2.599 -0.40700001 4294901760
7.8610001 -2.5769999 -0.40799999 4294901760
7.8969998 -2.5610001 -0.41 4294901760
7.9070001 -2.5369999 -0.41 4294901760
7.9530001 -2.5239999 -0.41299999 4294901760
7.98 -2.5190001 -0.41499999 4294901760
8.0279999 -2.506 -0.41800001 4294901760
8.0609999 -2.4890001 -0.41999999 4294901760
8.0970001 -2.4719999 -0.42199999 4294901760
8.1370001 -2.4560001 -0.42500001 4294901760
8.1990004 -2.4460001 -0.42899999 4294901760
8.375 -2.4549999 -0.44100001 4294901760
8.9540005 -2.5929999 -0.48500001 4294901760
8.448 -2.4189999 -0.44600001 4294901760
8.9799995 -2.539 -0.486 4294901760
8.9239998 -2.494 -0.48100001 4294901760
8.7639999 -2.4200001 -0.46799999 4294901760
8.7220001 -2.3929999 -0.465 4294901760
8.8450003 -2.3970001 -0.47400001 4294901760
8.8889999 -2.3789999 -0.47600001 4294901760
8.9700003 -2.3699999 -0.48199999 4294901760
9.0240002 -2.3540001 -0.486 4294901760
9.0950003 -2.342 -0.49000001 4294901760
9.1660004 -2.345 -0.49599999 4294901760
9.7019997 -2.3829999 -0.53500003 4294901760
9.6260004 -2.332 -0.528 4294901760
9.7320004 -2.326 -0.53600001 4294901760
13.855 -3.1849999 -0.84600002 4294901760
13.888 -3.1459999 -0.84799999 4294901760
15.643 -3.4890001 -0.98000002 4294901760
15.648 -3.4389999 -0.97899997 4294901760
15.634 -3.3840001 -0.977 4294901760
15.607 -3.3269999 -0.97399998 4294901760
15.64 -3.3080001 -0.97600001 4294901760
15.599 -3.2490001 -0.97299999 4294901760
15.521 -3.1819999 -0.96600002 4294901760
15.304 -3.0869999 -0.949 4294901760
12.229 -5.8610001 -0.88700002 4294901760
12.345 -5.869 -0.89499998 4294901760
12.475 -5.8829999 -0.90499997 4294901760
12.343 -5.7969999 -0.89300001 4294901760
10.236 -3.5799999 -0.66900003 4294901760
10.239 -3.5450001 -0.66799998 4294901760
8.9849997 -2.6400001 -0.55000001 4294901760
8.993 -2.6270001 -0.55000001 4294901760
8.9870005 -2.595 -0.54900002 4294901760
8.967 -2.4979999 -0.546 4294901760
9.6379995 -2.299 -0.59399998 4294901760
13.825 -3.1489999 -0.93599999 4294901760
14.119 -3.1689999 -0.95999998 4294901760
15.419 -3.4130001 -1.066 4294901760
15.414 -3.234 -1.062 4294901760
13.494 -2.7839999 -0.90399998 4294901760
15.257 -3.1010001 -1.048 4294901760
15.36 -3.072 -1.056 4294901760
12.128 -5.875 -0.95700002 4294901760
12.224 -5.8740001 -0.96499997 4294901760
12.323 -5.8740001 -0.97299999 4294901760
12.451 -5.8870001 -0.98299998 4294901760
12.439 -5.8579998 -0.98100001 4294901760
7.71 -3.612 -0.53100002 4294901760
7.7020001 -3.52 -0.52700001 4294901760
7.6859999 -3.4549999 -0.523 4294901760
7.6900001 -3.4419999 -0.523 4294901760
8.0120001 -3.391 -0.54699999 4294901760
8.0190001 -3.3640001 -0.546 4294901760
8.0150003 -3.3329999 -0.54500002 4294901760
8.0190001 -3.3050001 -0.54500002 4294901760
8.0279999 -3.279 -0.54400003 4294901760
8.0340004 -3.253 -0.54400003 4294901760
8.0430002 -3.227 -0.54400003 4294901760
8.0439997 -3.2119999 -0.54400003 4294901760
8.0690002 -3.1930001 -0.54500002 4294901760
8.8409996 -3.464 -0.61500001 4294901760
7.8270001 -2.9849999 -0.51899999 4294901760
7.8499999 -2.98 -0.52100003 4294901760
7.8629999 -2.9560001 -0.52100003 4294901760
7.7979999 -2.8759999 -0.51300001 4294901760
7.809 -2.852 -0.514 4294901760
7.8119998 -2.826 -0.51300001 4294901760
8.0349998 -2.75 -0.52899998 4294901760
8.0530005 -2.7279999 -0.52999997 4294901760
8.059 -2.7160001 -0.52999997 4294901760
8.9289999 -2.6059999 -0.59899998 4294901760
8.7860003 -2.5339999 -0.58499998 4294901760
8.3739996 -2.3599999 -0.54699999 4294901760
8.5039997 -2.339 -0.55699998 4294901760
8.6110001 -2.3239999 -0.56599998 4294901760
8.7299995 -2.3269999 -0.57599998 4294901760
8.7930002 -2.3139999 -0.58099997 4294901760
8.8579998 -2.3010001 -0.58600003 4294901760
8.927 -2.289 -0.59100002 4294901760
9.0150003 -2.2809999 -0.59799999 4294901760
9.0930004 -2.2850001 -0.60500002 4294901760
9.1870003 -2.2780001 -0.61299998 4294901760
9.3990002 -2.267 -0.63 4294901760
9.5340004 -2.2679999 -0.64099997 4294901760
9.8380003 -2.3069999 -0.66799998 4294901760
9.8190002 -2.2539999 -0.66500002 4294901760
9.8929996 -2.237 -0.671 4294901760
9.8470001 -2.1949999 -0.66600001 4294901760
9.8299999 -2.0780001 -0.66299999 4294901760
14.809 -2.9719999 -1.097 4294901760
14.822 -2.9260001 -1.098 4294901760
12.216 -5.8850002 -1.045 4294901760
12.193 -5.8270001 -1.041 4294901760
8.9449997 -2.5869999 -0.65499997 4294901760
8.9110003 -2.562 -0.65100002 4294901760
8.9429998 -2.5409999 -0.65399998 4294901760
8.915 -2.4419999 -0.64899999 4294901760
9.6049995 -2.2160001 -0.70499998 4294901760
9.8000002 -2.2130001 -0.722 4294901760
10.42 -2.1830001 -0.778 4294901760
14.439 -2.964 -1.154 4294901760
13.563 -2.7379999 -1.071 4294901760
14.923 -2.967 -1.197 4294901760
13.683 -2.674 -1.08 4294901760
14.806 -2.8469999 -1.1849999 4294901760
12.413 -5.98 -1.153 4294901760
7.5510001 -3.562 -0.62 4294901760
7.553 -3.5339999 -0.61900002 4294901760
7.5279999 -3.493 -0.61500001 4294901760
7.513 -3.4719999 -0.61299998 4294901760
7.5079999 -3.441 -0.611 4294901760
7.5120001 -3.415 -0.61000001 4294901760
7.5170002 -3.388 -0.61000001 4294901760
7.4980001 -3.352 -0.60600001 4294901760
7.5009999 -3.325 -0.60600001 4294901760
7.5149999 -3.303 -0.60600001 4294901760
7.5100002 -3.2869999 -0.60500002 4294901760
7.487 -3.2490001 -0.60100001 4294901760
7.5139999 -3.2320001 -0.60299999 4294901760
7.506 -3.201 -0.60100001 4294901760
7.4829998 -3.164 -0.59799999 4294901760
7.5139999 -3.1489999 -0.60000002 4294901760
7.5029998 -3.131 -0.59799999 4294901760
7.487 -3.096 -0.59500003 4294901760
7.5 -3.0739999 -0.59600002 4294901760
7.4970002 -3.046 -0.59399998 4294901760
7.4949999 -3.0179999 -0.59299999 4294901760
7.5229998 -3.0009999 -0.59500003 4294901760
7.507 -2.9679999 -0.59299999 4294901760
7.513 -2.9560001 -0.59299999 4294901760
7.5209999 -2.9319999 -0.59299999 4294901760
7.4949999 -2.895 -0.58899999 4294901760
7.5110002 -2.8740001 -0.58999997 4294901760
7.507 -2.846 -0.588 4294901760
7.5209999 -2.8239999 -0.58899999 4294901760
7.5170002 -2.796 -0.58700001 4294901760
7.5180001 -2.783 -0.58700001 4294901760
7.54 -2.7639999 -0.588 4294901760
7.546 -2.7390001 -0.588 4294901760
7.5570002 -2.7160001 -0.588 4294901760
7.6090002 -2.7079999 -0.59299999 4294901760
7.625 -2.6860001 -0.59399998 4294901760
7.6950002 -2.697 -0.60100001 4294901760
7.7800002 -2.7 -0.60900003 4294901760
7.8109999 -2.6830001 -0.611 4294901760
7.8179998 -2.658 -0.611 4294901760
7.6090002 -2.5610001 -0.588 4294901760
7.7199998 -2.45 -0.59500003 4294901760
7.7529998 -2.434 -0.59799999 4294901760
7.7930002 -2.4189999 -0.60100001 4294901760
7.829 -2.4030001 -0.60399997 4294901760
8.0190001 -2.365 -0.62099999 4294901760
8.0740004 -2.3540001 -0.62599999 4294901760
8.9049997 -2.5480001 -0.70899999 4294901760
8.9049997 -2.5179999 -0.70899999 4294901760
8.8380003 -2.4690001 -0.70099998 4294901760
8.3970003 -2.319 -0.65499997 4294901760
8.9130001 -2.4289999 -0.70700002 4294901760
8.7880001 -2.3659999 -0.69400001 4294901760
8.6400003 -2.2969999 -0.67799997 4294901760
8.6610003 -2.2880001 -0.68000001 4294901760
8.7349997 -2.279 -0.68599999 4294901760
8.7869997 -2.2620001 -0.69099998 4294901760
8.8710003 -2.2539999 -0.699 4294901760
8.9259996 -2.2379999 -0.704 4294901760
9.0010004 -2.227 -0.70999998 4294901760
9.1549997 -2.2190001 -0.72500002 4294901760
9.243 -2.2090001 -0.73299998 4294901760
9.323 -2.197 -0.741 4294901760
9.3959999 -2.1830001 -0.74699998 4294901760
9.5019999 -2.1760001 -0.75700003 4294901760
9.5959997 -2.165 -0.76599997 4294901760
9.6809998 -2.152 -0.77399999 4294901760
9.816 -2.1659999 -0.787 4294901760
9.9180002 -2.1559999 -0.79699999 4294901760
10.023 -2.145 -0.80599999 4294901760
10.326 -2.142 -0.83600003 4294901760
10.516 -2.1459999 -0.85399997 4294901760
10.602 -2.1459999 -0.86199999 4294901760
10.745 -2.1389999 -0.87599999 4294901760
13.535 -2.6440001 -1.154 4294901760
14.388 -2.7620001 -1.239 4294901760
13.537 -2.556 -1.153 4294901760
7.5029998 -3.553 -0.66600001 4294901760
7.4910002 -3.5179999 -0.66399997 4294901760
7.5110002 -3.4990001 -0.66500002 4294901760
7.4910002 -3.461 -0.66100001 4294901760
7.4770002 -3.4260001 -0.65799999 4294901760
7.4790001 -3.4119999 -0.65799999 4294901760
7.4549999 -3.3729999 -0.65399998 4294901760
7.4530001 -3.3440001 -0.65200001 4294901760
7.454 -3.316 -0.65100002 4294901760
7.4559999 -3.289 -0.64999998 4294901760
7.4349999 -3.2520001 -0.64700001 4294901760
7.447 -3.2290001 -0.64700001 4294901760
7.408 -3.1989999 -0.64200002 4294901760
7.3909998 -3.1630001 -0.639 4294901760
7.4060001 -3.1429999 -0.63999999 4294901760
7.4289999 -3.125 -0.64099997 4294901760
7.4310002 -3.098 -0.63999999 4294901760
7.4320002 -3.0710001 -0.639 4294901760
7.4419999 -3.0480001 -0.639 4294901760
7.4320002 -3.03 -0.63700002 4294901760
7.4390001 -3.006 -0.63700002 4294901760
7.441 -2.9790001 -0.63599998 4294901760
7.454 -2.9579999 -0.63700002 4294901760
7.454 -2.9300001 -0.63599998 4294901760
7.447 -2.9000001 -0.634 4294901760
7.4400001 -2.8840001 -0.63300002 4294901760
7.447 -2.8599999 -0.63200003 4294901760
7.4559999 -2.8369999 -0.63200003 4294901760
7.4759998 -2.8180001 -0.634 4294901760
7.4590001 -2.7839999 -0.63099998 4294901760
7.4679999 -2.7609999 -0.63099998 4294901760
7.493 -2.744 -0.63300002 4294901760
7.4770002 -2.724 -0.63 4294901760
7.5 -2.7060001 -0.63200003 4294901760
7.4899998 -2.6760001 -0.63 4294901760
7.506 -2.655 -0.63099998 4294901760
7.5110002 -2.6300001 -0.63 4294901760
7.5019999 -2.6010001 -0.62900001 4294901760
7.5310001 -2.5840001 -0.63099998 4294901760
7.5370002 -2.573 -0.63099998 4294901760
7.7199998 -2.408 -0.64399999 4294901760
7.7639999 -2.395 -0.648 4294901760
7.7979999 -2.3789999 -0.65100002 4294901760
7.9460001 -2.3559999 -0.66500002 4294901760
7.9689999 -2.336 -0.667 4294901760
8.0900002 -2.3169999 -0.67799997 4294901760
8.1400003 -2.303 -0.68300003 4294901760
8.2040005 -2.2939999 -0.68900001 4294901760
8.2670002 -2.2980001 -0.69499999 4294901760
8.3179998 -2.2839999 -0.69999999 4294901760
8.3870001 -2.2750001 -0.70700002 4294901760
8.427 -2.257 -0.70999998 4294901760
8.4969997 -2.2479999 -0.71700001 4294901760
8.5480003 -2.233 -0.722 4294901760
8.6169996 -2.2219999 -0.72899997 4294901760
8.6739998 -2.2219999 -0.73400003 4294901760
8.7530003 -2.2130001 -0.74199998 4294901760
8.8190002 -2.201 -0.74900001 4294901760
8.8739996 -2.1849999 -0.75400001 4294901760
8.9619999 -2.177 -0.76200002 4294901760
9.0270004 -2.1630001 -0.76899999 4294901760
9.1140003 -2.1689999 -0.778 4294901760
9.2069998 -2.161 -0.787 4294901760
9.2819996 -2.148 -0.79400003 4294901760
9.7510004 -2.1289999 -0.84200001 4294901760
9.8730001 -2.1400001 -0.85399997 4294901760
10.008 -2.1370001 -0.86799997 4294901760
10.155 -2.135 -0.88300002 4294901760
10.288 -2.1300001 -0.89600003 4294901760
10.425 -2.1240001 -0.91000003 4294901760
10.517 -2.109 -0.91900003 4294901760
10.607 -2.1099999 -0.92900002 4294901760
10.697 -2.0929999 -0.93699998 4294901760
13.65 -2.589 -1.25 4294901760
13.758 -2.5650001 -1.261 4294901760
7.5120001 -2.8369999 -0.69099998 4294901760
7.5310001 -2.8169999 -0.69199997 4294901760
7.5170002 -2.7850001 -0.68900001 4294901760
7.5180001 -2.7720001 -0.68900001 4294901760
7.6339998 -2.506 -0.69099998 4294901760
7.6680002 -2.49 -0.69400001 4294901760
7.6849999 -2.4820001 -0.69599998 4294901760
7.6890001 -2.457 -0.69499999 4294901760
11.059 -2.151 -1.05 4294901760
13.658 -2.562 -1.341 4294901760
13.836 -2.55 -1.3609999 4294901760
7.5050001 -2.5680001 -0.72899997 4294901760
7.592 -2.5710001 -0.73900002 4294901760
7.6329999 -2.572 -0.74299997 4294901760
7.6789999 -2.5610001 -0.74800003 4294901760
7.632 -2.5179999 -0.741 4294901760
7.8889999 -2.5769999 -0.77200001 4294901760
7.6009998 -2.4549999 -0.73500001 4294901760
7.6100001 -2.4319999 -0.736 4294901760
7.6389999 -2.428 -0.73900002 4294901760
7.6820002 -2.415 -0.74299997 4294901760
7.6789999 -2.3870001 -0.74199998 4294901760
8.5200005 -2.217 -0.83099997 4294901760
10.754 -2.112 -1.0829999 4294901760
11.116 -2.1659999 -1.126 4294901760
11.13 -2.132 -1.127 4294901760
7.461 -3.1040001 -0.79299998 4294901760
7.382 -3.0439999 -0.78100002 4294901760
7.4970002 -3.0780001 -0.796 4294901760
7.4819999 -2.721 -0.778 4294901760
7.4970002 -2.6730001 -0.778 4294901760
7.494 -2.645 -0.77600002 4294901760
7.598 -2.615 -0.787 4294901760
7.5549998 -2.5739999 -0.78100002 4294901760
7.586 -2.5569999 -0.78399998 4294901760
7.5960002 -2.5339999 -0.78399998 4294901760
7.6170001 -2.5150001 -0.78600001 4294901760
7.6700001 -2.5050001 -0.79100001 4294901760
7.6209998 -2.4760001 -0.78500003 4294901760
7.619 -2.4489999 -0.78299999 4294901760
7.6760001 -2.414 -0.78899997 4294901760
7.7030001 -2.3959999 -0.79100001 4294901760
7.75 -2.3840001 -0.796 4294901760
10.681 -2.1329999 -1.138 4294901760
10.75 -2.1110001 -1.146 4294901760
11.207 -2.1630001 -1.202 4294901760
7.5819998 -3.6470001 -0.87699997 4294901760
7.513 -3.5840001 -0.86500001 4294901760
7.4749999 -3.2809999 -0.84500003 4294901760
7.302 -3.0550001 -0.81300002 4294901760
7.3839998 -3.063 -0.82300001 4294901760
7.4200001 -3.05 -0.82700002 4294901760
7.4219999 -2.9560001 -0.82300001 4294901760
7.4489999 -2.9400001 -0.82499999 4294901760
7.4200001 -2.901 -0.81999999 4294901760
7.4320002 -2.8789999 -0.81999999 4294901760
7.4159999 -2.846 -0.81699997 4294901760
7.4330001 -2.812 -0.81699997 4294901760
7.4359999 -2.7869999 -0.81599998 4294901760
7.441 -2.7620001 -0.81599998 4294901760
7.4460001 -2.737 -0.815 4294901760
7.421 -2.7019999 -0.81099999 4294901760
7.4549999 -2.688 -0.81400001 4294901760
7.4650002 -2.678 -0.815 4294901760
7.4460001 -2.645 -0.81099999 4294901760
7.5019999 -2.585 -0.81599998 4294901760
7.5009999 -2.559 -0.81400001 4294901760
7.5159998 -2.5380001 -0.815 4294901760
7.5370002 -2.5309999 -0.81800002 4294901760
7.5510001 -2.51 -0.81900001 4294901760
7.5510001 -2.483 -0.81699997 4294901760
7.6079998 -2.4760001 -0.824 4294901760
7.6149998 -2.4519999 -0.824 4294901760
7.6059999 -2.4230001 -0.82200003 4294901760
7.5949998 -2.3929999 -0.81900001 4294901760
7.6170001 -2.3870001 -0.82200003 4294901760
7.6760001 -2.3789999 -0.829 4294901760
8.1160002 -2.253 -0.87800002 4294901760
8.1520004 -2.2360001 -0.88200003 4294901760
8.2299995 -2.243 -0.89200002 4294901760
8.3409996 -2.2179999 -0.90499997 4294901760
10.152 -2.1489999 -1.128 4294901760
10.248 -2.135 -1.14 4294901760
10.364 -2.1259999 -1.154 4294901760
10.52 -2.1240001 -1.173 4294901760
10.579 -2.1010001 -1.1799999 4294901760
10.817 -2.1140001 -1.21 4294901760
11.174 -2.148 -1.256 4294901760
7.5580001 -3.658 -0.93300003 4294901760
7.5549998 -3.628 -0.93099999 4294901760
7.5560002 -3.6129999 -0.93099999 4294901760
7.506 -3.5320001 -0.92000002 4294901760
7.4850001 -3.494 -0.91500002 4294901760
7.4910002 -3.467 -0.91399997 4294901760
7.4829998 -3.3929999 -0.90899998 4294901760
7.4650002 -3.3570001 -0.90499997 4294901760
7.4790001 -3.335 -0.90499997 4294901760
7.4860001 -3.3099999 -0.90499997 4294901760
7.4889998 -3.283 -0.90399998 4294901760
7.4679999 -3.2460001 -0.89899999 4294901760
7.4640002 -3.23 -0.898 4294901760
7.4759998 -3.2079999 -0.898 4294901760
7.4530001 -3.1700001 -0.89300001 4294901760
7.4899998 -3.1300001 -0.89600003 4294901760
7.4699998 -3.095 -0.89200002 4294901760
7.4559999 -3.062 -0.88800001 4294901760
7.4520001 -3.046 -0.88700002 4294901760
7.454 -3.02 -0.88599998 4294901760
7.4710002 -2.9990001 -0.88700002 4294901760
7.4629998 -2.9690001 -0.884 4294901760
7.4689999 -2.944 -0.884 4294901760
7.4429998 -2.9070001 -0.87900001 4294901760
7.4759998 -2.8929999 -0.88200003 4294901760
7.473 -2.8789999 -0.88099998 4294901760
7.467 -2.849 -0.87900001 4294901760
7.4780002 -2.8269999 -0.87900001 4294901760
7.4759998 -2.799 -0.87800002 4294901760
7.4829998 -2.7750001 -0.87699997 4294901760
7.4710002 -2.744 -0.87400001 4294901760
7.4809999 -2.734 -0.875 4294901760
7.4910002 -2.711 -0.875 4294901760
7.5219998 -2.6960001 -0.87900001 4294901760
7.5009999 -2.6619999 -0.87400001 4294901760
7.6009998 -2.6159999 -0.88499999 4294901760
7.4840002 -2.5639999 -0.86799997 4294901760
7.5019999 -2.543 -0.86900002 4294901760
7.5149999 -2.5220001 -0.87 4294901760
7.5250001 -2.4990001 -0.87 4294901760
7.5370002 -2.4760001 -0.87099999 4294901760
7.586 -2.4660001 -0.87699997 4294901760
7.6069999 -2.4460001 -0.87900001 4294901760
7.6300001 -2.4400001 -0.88099998 4294901760
7.6529999 -2.421 -0.884 4294901760
7.5279999 -2.3559999 -0.86500001 4294901760
7.6900001 -2.3800001 -0.88700002 4294901760
7.974 -2.289 -0.92000002 4294901760
7.9959998 -2.2690001 -0.92199999 4294901760
8.0469999 -2.256 -0.92799997 4294901760
8.1379995 -2.2390001 -0.93900001 4294901760
8.2290001 -2.2360001 -0.95099998 4294901760
8.2980003 -2.227 -0.95999998 4294901760
8.4820004 -2.2190001 -0.98299998 4294901760
9.2729998 -2.1760001 -1.086 4294901760
9.9860001 -2.1600001 -1.179 4294901760
10.13 -2.158 -1.198 4294901760
10.247 -2.1489999 -1.2130001 4294901760
10.398 -2.1459999 -1.233 4294901760
10.506 -2.1329999 -1.247 4294901760
10.621 -2.122 -1.262 4294901760
10.639 -2.0910001 -1.263 4294901760
11.129 -2.168 -1.33 4294901760
11.237 -2.152 -1.344 4294901760
7.4330001 -2.595 -0.91600001 4294901760
7.474 -2.5829999 -0.921 4294901760
7.4920001 -2.563 -0.92299998 4294901760
7.507 -2.5420001 -0.92400002 4294901760
7.5190001 -2.533 -0.92500001 4294901760
7.5770001 -2.526 -0.93199998 4294901760
7.585 -2.5020001 -0.93199998 4294901760
7.5840001 -2.4749999 -0.93099999 4294901760
7.599 -2.454 -0.93199998 4294901760
7.7270002 -2.4690001 -0.94999999 4294901760
7.5710001 -2.392 -0.926 4294901760
10.508 -2.131 -1.3200001 4294901760
10.517 -2.098 -1.3200001 4294901760
10.574 -2.075 -1.327 4294901760
7.494 -3.707 -1.023 4294901760
7.4860001 -3.674 -1.02 4294901760
7.4759998 -3.6400001 -1.016 4294901760
7.4770002 -3.612 -1.015 4294901760
7.4520001 -3.5710001 -1.0089999 4294901760
7.4530001 -3.543 -1.007 4294901760
7.467 -3.5350001 -1.0089999 4294901760
7.493 -3.5179999 -1.011 4294901760
7.5149999 -3.5 -1.013 4294901760
7.493 -3.461 -1.007 4294901760
7.5180001 -3.444 -1.01 4294901760
7.4970002 -3.4059999 -1.005 4294901760
7.4619999 -2.9349999 -0.97299999 4294901760
7.48 -2.915 -0.97500002 4294901760
7.4749999 -2.8859999 -0.972 4294901760
7.474 -2.872 -0.97100002 4294901760
7.4699998 -2.8429999 -0.96899998 4294901760
7.4819999 -2.8210001 -0.97000003 4294901760
7.48 -2.7939999 -0.96799999 4294901760
7.487 -2.7690001 -0.96799999 4294901760
7.4920001 -2.744 -0.96700001 4294901760
7.4860001 -2.7160001 -0.96499997 4294901760
7.507 -2.71 -0.96799999 4294901760
7.527 -2.664 -0.96799999 4294901760
7.5599999 -2.6489999 -0.972 4294901760
7.546 -2.6170001 -0.96799999 4294901760
7.5149999 -2.5799999 -0.96200001 4294901760
7.5640001 -2.5699999 -0.96899998 4294901760
7.5359998 -2.5480001 -0.96399999 4294901760
7.5500002 -2.526 -0.96499997 4294901760
7.559 -2.503 -0.96499997 4294901760
7.5539999 -2.4749999 -0.963 4294901760
7.573 -2.4549999 -0.96499997 4294901760
7.6030002 -2.438 -0.96799999 4294901760
9.7799997 -2.1559999 -1.265 4294901760
9.8839998 -2.1459999 -1.279 4294901760
10.007 -2.1389999 -1.2970001 4294901760
10.144 -2.152 -1.317 4294901760
10.274 -2.145 -1.335 4294901760
10.512 -2.1600001 -1.369 4294901760
10.567 -2.1370001 -1.377 4294901760
10.593 -2.1070001 -1.38 4294901760
10.72 -2.0969999 -1.397 4294901760
7.4780002 -3.687 -1.08 4294901760
7.4619999 -3.6500001 -1.075 4294901760
7.4450002 -3.612 -1.0700001 4294901760
7.427 -3.575 -1.0650001 4294901760
7.4229999 -3.5439999 -1.062 4294901760
7.421 -3.5150001 -1.0599999 4294901760
7.4159999 -3.484 -1.058 4294901760
7.4039998 -3.464 -1.0549999 4294901760
7.3969998 -3.4319999 -1.052 4294901760
7.3969998 -3.404 -1.05 4294901760
7.3889999 -3.372 -1.0470001 4294901760
7.3839998 -3.342 -1.044 4294901760
7.3920002 -3.3180001 -1.044 4294901760
7.3959999 -3.2909999 -1.0420001 4294901760
7.3990002 -3.279 -1.0420001 4294901760
7.3870001 -3.2460001 -1.039 4294901760
7.3889999 -3.2190001 -1.0369999 4294901760
7.4000001 -3.1960001 -1.0369999 4294901760
7.3920002 -3.165 -1.034 4294901760
7.428 -3.1530001 -1.039 4294901760
7.4330001 -3.141 -1.039 4294901760
7.4419999 -3.118 -1.039 4294901760
7.441 -3.0899999 -1.0369999 4294901760
7.4489999 -3.066 -1.036 4294901760
7.4310002 -3.0309999 -1.0319999 4294901760
7.4499998 -3.0109999 -1.033 4294901760
7.4590001 -2.9879999 -1.033 4294901760
7.4569998 -2.973 -1.0319999 4294901760
7.4640002 -2.9489999 -1.0319999 4294901760
7.4510002 -2.9170001 -1.028 4294901760
7.4530001 -2.8900001 -1.027 4294901760
7.4419999 -2.859 -1.024 4294901760
7.4530001 -2.796 -1.022 4294901760
7.4699998 -2.6700001 -1.018 4294901760
7.4710002 -2.6429999 -1.016 4294901760
7.4549999 -2.6240001 -1.013 4294901760
7.4699998 -2.6040001 -1.0140001 4294901760
7.4749999 -2.579 -1.0140001 4294901760
7.473 -2.552 -1.012 4294901760
7.4910002 -2.5320001 -1.0140001 4294901760
7.4990001 -2.5079999 -1.0140001 4294901760
7.5029998 -2.497 -1.0140001 4294901760
7.5229998 -2.477 -1.016 4294901760
7.5409999 -2.457 -1.017 4294901760
7.5430002 -2.431 -1.016 4294901760
7.5840001 -2.418 -1.022 4294901760
7.6570001 -2.3499999 -1.029 4294901760
7.7350001 -2.3469999 -1.041 4294901760
7.763 -2.329 -1.044 4294901760
7.7849998 -2.309 -1.046 4294901760
7.8189998 -2.2920001 -1.051 4294901760
7.8569999 -2.29 -1.056 4294901760
7.8829999 -2.2709999 -1.059 4294901760
7.9089999 -2.2520001 -1.062 4294901760
8.4989996 -2.335 -1.153 4294901760
8.4969997 -2.306 -1.151 4294901760
8.4820004 -2.2880001 -1.148 4294901760
8.4119997 -2.24 -1.136 4294901760
9.2930002 -2.1830001 -1.265 4294901760
9.3830004 -2.1730001 -1.278 4294901760
9.4799995 -2.164 -1.2920001 4294901760
9.5830002 -2.1719999 -1.308 4294901760
9.6599998 -2.158 -1.319 4294901760
9.809 -2.1589999 -1.341 4294901760
