# .PCD v0.7 - Point Cloud Data file format
VERSION 0.7
FIELDS x y z rgb
SIZE 4 4 4 4
TYPE F F F U
COUNT 1 1 1 1
WIDTH 1292
HEIGHT 1
VIEWPOINT 0 0 0 1 0 0 0
POINTS 1292
DATA ascii
23.273001 -1.53 -1.403 4278190335
23.312 -1.459 -1.405 4278190335
23.506001 -1.397 -1.418 4278190335
23.787001 -1.339 -1.437 4278190335
23.91 -1.308 -1.4450001 4278190335
24.448 -1.261 -1.482 4278190335
25.375 -1.23 -1.546 4278190335
25.739 -1.1670001 -1.571 4278190335
25.844999 -1.091 -1.5779999 4278190335
25.934 -1.013 -1.584 4278190335
26.15 -0.94 -1.598 4278190335
26.433001 -0.90799999 -1.618 4278190335
26.452999 -0.82599998 -1.619 4278190335
26.218 -0.736 -1.602 4278190335
26.225 -0.65399998 -1.603 4278190335
26.219 -0.57099998 -1.602 4278190335
26.209999 -0.48800001 -1.602 4278190335
26.198999 -0.447 -1.601 4278190335
26.174 -0.36399999 -1.599 4278190335
26.145 -0.28200001 -1.597 4278190335
26.1 -0.199 -1.594 4278190335
26.079 -0.117 -1.592 4278190335
26.059 -0.035 -1.591 4278190335
24.313 0.063000001 -1.59 4278190335
24.302999 0.101 -1.59 4278190335
24.285999 0.177 -1.5880001 4278190335
24.313999 0.25400001 -1.59 4278190335
24.302999 0.33000001 -1.59 4278190335
24.26 0.40599999 -1.587 4278190335
24.257999 0.48199999 -1.587 4278190335
24.257 0.55800003 -1.587 4278190335
24.214001 0.59500003 -1.5829999 4278190335
24.204 0.671 -1.5829999 4278190335
24.191999 0.74699998 -1.582 4278190335
24.163 0.82200003 -1.58 4278190335
24.160999 0.898 -1.58 4278190335
24.153999 0.97399998 -1.58 4278190335
24.160999 1.05 -1.581 4278190335
24.153 1.0880001 -1.58 4278190335
24.155001 1.164 -1.581 4278190335
24.148001 1.239 -1.58 4278190335
24.158001 1.316 -1.581 4278190335
24.149 1.392 -1.581 4278190335
24.153 1.4680001 -1.582 4278190335
24.167999 1.507 -1.5829999 4278190335
24.166 1.5829999 -1.5829999 4278190335
24.172001 1.66 -1.584 4278190335
24.188999 1.737 -1.586 4278190335
24.173 1.813 -1.585 4278190335
24.17 1.8890001 -1.585 4278190335
24.195 1.967 -1.587 4278190335
24.200001 2.006 -1.5880001 4278190335
24.228001 2.085 -1.591 4278190335
24.240999 2.1630001 -1.592 4278190335
24.271999 2.2420001 -1.595 4278190335
24.299999 2.322 -1.597 4278190335
24.297001 2.3989999 -1.598 4278190335
24.297001 2.4760001 -1.598 4278190335
24.323 2.517 -1.601 4278190335
24.35 2.598 -1.603 4278190335
24.364 2.6760001 -1.605 4278190335
24.423 2.7609999 -1.61 4278190335
24.459999 2.8429999 -1.613 4278190335
24.48 2.9230001 -1.615 4278190335
24.500999 3.0039999 -1.618 4278190335
24.552999 3.049 -1.622 4278190335
24.569 3.1300001 -1.624 4278190335
24.607 3.2130001 -1.627 4278190335
24.624001 3.2939999 -1.6289999 4278190335
24.667 3.3789999 -1.633 4278190335
24.68 3.46 -1.635 4278190335
24.712 3.5039999 -1.638 4278190335
24.729 3.586 -1.64 4278190335
24.761 3.6700001 -1.643 4278190335
24.775 3.7509999 -1.645 4278190335
24.788 3.8329999 -1.647 4278190335
24.809999 3.9159999 -1.649 4278190335
24.837 4.0009999 -1.652 4278190335
24.862 4.0450001 -1.655 4278190335
24.882 4.1279998 -1.6569999 4278190335
24.913 4.2140002 -1.661 4278190335
24.927 4.2969999 -1.663 4278190335
24.952 4.382 -1.666 4278190335
24.983999 4.4689999 -1.669 4278190335
25.009001 4.5539999 -1.6720001 4278190335
25.047001 4.6020002 -1.675 4278190335
25.073 4.6880002 -1.678 4278190335
25.103001 4.776 -1.682 4278190335
25.124001 4.8610001 -1.684 4278190335
25.159 4.9499998 -1.688 4278190335
25.173 5.0349998 -1.6900001 4278190335
25.212 5.0840001 -1.694 4278190335
25.239 5.1719999 -1.697 4278190335
25.257 5.2589998 -1.7 4278190335
25.261999 5.3429999 -1.701 4278190335
25.292 5.4320002 -1.705 4278190335
25.288 5.5149999 -1.706 4278190335
25.333 5.6079998 -1.711 4278190335
25.365 5.6570001 -1.714 4278190335
25.396 5.7480001 -1.717 4278190335
25.5 5.8559999 -1.727 4278190335
25.535999 5.9489999 -1.7309999 4278190335
25.407 6.0019999 -1.722 4278190335
25.254 6.0500002 -1.712 4278190335
25.25 6.1329999 -1.7130001 4278190335
25.316 6.191 -1.719 4278190335
25.357 6.2859998 -1.724 4278190335
25.348 6.368 -1.725 4278190335
25.375 6.46 -1.728 4278190335
25.374001 6.5440001 -1.73 4278190335
25.358999 6.6259999 -1.73 4278190335
25.365 6.7119999 -1.732 4278190335
25.358 6.7529998 -1.732 4278190335
25.346001 6.836 -1.733 4278190335
25.361 6.9250002 -1.7359999 4278190335
25.375999 7.0149999 -1.739 4278190335
25.396 7.1069999 -1.742 4278190335
25.4 7.1939998 -1.744 4278190335
25.434999 7.2470002 -1.748 4278190335
25.429001 7.3319998 -1.749 4278190335
25.408001 7.4120002 -1.749 4278190335
24.488001 7.2259998 -1.6799999 4278190335
24.465 7.303 -1.6799999 4278190335
24.451 7.3829999 -1.681 4278190335
24.468 7.4720001 -1.684 4278190335
24.546 7.5380001 -1.691 4278190335
25.343 7.8709998 -1.7539999 4278190335
25.322001 7.9520001 -1.7539999 4278190335
25.316 8.0369997 -1.756 4278190335
25.283001 8.1140003 -1.755 4278190335
25.243999 8.1890001 -1.7539999 4278190335
25.268999 8.2849998 -1.758 4278190335
25.249001 8.323 -1.758 4278190335
25.256001 8.4130001 -1.76 4278190335
25.249001 8.4989996 -1.762 4278190335
25.254 8.5889997 -1.7640001 4278190335
18.809999 6.4559999 -1.2640001 4278190335
25.294001 8.7810001 -1.772 4278190335
25.295 8.8249998 -1.773 4278190335
25.302999 8.9180002 -1.776 4278190335
25.273001 8.9960003 -1.775 4278190335
18.218 6.5419998 -1.225 4278190335
18.311001 6.6409998 -1.234 4278190335
25.312 9.2799997 -1.785 4278190335
18.608999 6.882 -1.261 4278190335
25.298 9.4110003 -1.788 4278190335
18.653 6.9980001 -1.267 4278190335
18.580999 7.0380001 -1.263 4278190335
25.309 9.6870003 -1.796 4278190335
18.993999 7.3319998 -1.299 4278190335
18.179001 7.0819998 -1.2359999 4278190335
18.146 7.1339998 -1.235 4278190335
18.466999 7.2950001 -1.262 4278190335
18.136 7.23 -1.237 4278190335
18.082001 7.2740002 -1.235 4278190335
24.299 9.9619999 -1.734 4278190335
18.75 7.75 -1.294 4278190335
24.885 10.34 -1.784 4278190335
24.816999 10.404 -1.7819999 4278190335
24.641001 10.421 -1.77 4278190335
24.525999 10.554 -1.766 4278190335
24.343 10.566 -1.7539999 4278190335
18.308001 8.0080004 -1.271 4278190335
18.327999 8.0509996 -1.274 4278190335
24.399 10.819 -1.765 4278190335
24.363001 10.895 -1.765 4278190335
24.316 10.966 -1.7640001 4278190335
24.273001 11.038 -1.7640001 4278190335
24.267 11.128 -1.766 4278190335
24.202999 11.19 -1.7640001 4278190335
17.771 8.243 -1.242 4278190335
24.163 11.31 -1.765 4278190335
24.129999 11.388 -1.765 4278190335
24.115999 11.474 -1.767 4278190335
18.889 9.0530005 -1.342 4278190335
18.731001 9.0500002 -1.331 4278190335
24.049999 11.675 -1.7690001 4278190335
18.702 9.2180004 -1.335 4278190335
18.371 9.1260004 -1.3099999 4278190335
18.266001 9.1459999 -1.304 4278190335
18.202 9.1850004 -1.301 4278190335
18.143999 9.2279997 -1.299 4278190335
18.128 9.2550001 -1.298 4278190335
18.104 9.3149996 -1.299 4278190335
18.068001 9.368 -1.298 4278190335
18.018999 9.4139996 -1.2970001 4278190335
18.079 9.5190001 -1.304 4278190335
18.014999 9.5570002 -1.301 4278190335
18.052 9.6499996 -1.307 4278190335
18.115999 9.7209997 -1.314 4278190335
18.238001 9.8599997 -1.326 4278190335
18.268 9.9510002 -1.331 4278190335
18.351999 10.072 -1.341 4278190335
18.261 10.097 -1.336 4278190335
18.139999 10.104 -1.329 4278190335
18.171 10.234 -1.335 4278190335
22.694 12.883 -1.722 4278190335
22.562 12.902 -1.714 4278190335
22.389999 12.897 -1.7029999 4278190335
22.184 12.871 -1.689 4278190335
22.025999 12.872 -1.679 4278190335
23.218 13.619 -1.7819999 4278190335
21.740999 12.842 -1.659 4278190335
21.584 12.841 -1.649 4278190335
21.179001 12.69 -1.618 4278190335
20.921 12.625 -1.599 4278190335
20.76 12.617 -1.589 4278190335
20.643999 12.635 -1.582 4278190335
20.531 12.61 -1.574 4278190335
20.377001 12.604 -1.564 4278190335
20.221001 12.595 -1.554 4278190335
20.063 12.584 -1.544 4278190335
19.924 12.584 -1.535 4278190335
19.790001 12.586 -1.527 4278190335
19.669001 12.553 -1.518 4278190335
19.523001 12.546 -1.5089999 4278190335
19.381001 12.541 -1.5 4278190335
19.23 12.528 -1.49 4278190335
19.094999 12.526 -1.4809999 4278190335
18.961 12.523 -1.473 4278190335
18.82 12.515 -1.464 4278190335
18.709 12.484 -1.456 4278190335
18.570999 12.476 -1.447 4278190335
18.413 12.454 -1.437 4278190335
18.26 12.434 -1.426 4278190335
18.135 12.432 -1.419 4278190335
18.003 12.424 -1.41 4278190335
17.908001 12.442 -1.405 4278190335
17.811001 12.417 -1.399 4278190335
17.761 12.464 -1.398 4278190335
17.740999 12.534 -1.399 4278190335
17.676001 12.571 -1.397 4278190335
17.568001 12.578 -1.391 4278190335
17.488001 12.604 -1.387 4278190335
17.285999 12.499 -1.37 4278190335
17.367001 12.641 -1.381 4278190335
17.315001 12.686 -1.38 4278190335
17.223 12.703 -1.376 4278190335
16.964001 12.594 -1.355 4278190335
16.886 12.618 -1.352 4278190335
16.396 12.331 -1.3099999 4278190335
16.290001 12.292 -1.302 4278190335
16.183001 12.291 -1.296 4278190335
16.084999 12.296 -1.29 4278190335
11.714 9.0039997 -0.88700002 4278190335
11.675 9.033 -0.88599998 4278190335
11.635 9.0609999 -0.88499999 4278190335
11.652 9.1330004 -0.889 4278190335
15.698 12.355 -1.271 4278190335
15.684 12.424 -1.273 4278190335
15.698 12.516 -1.278 4278190335
15.665 12.57 -1.279 4278190335
15.715 12.692 -1.2869999 4278190335
15.732 12.788 -1.293 4278190335
15.707 12.809 -1.2920001 4278190335
15.692 12.879 -1.294 4278190335
15.751 13.01 -1.304 4278190335
15.733 13.079 -1.306 4278190335
15.713 13.146 -1.308 4278190335
15.709 13.226 -1.312 4278190335
9.6110001 -8.0780001 -0.72399998 4278190335
9.6540003 -8.0629997 -0.72500002 4278190335
9.5889997 -7.9829998 -0.71799999 4278190335
9.6090002 -7.9489999 -0.71700001 4278190335
9.6049995 -7.895 -0.71499997 4278190335
9.4919996 -7.7529998 -0.70200002 4278190335
9.5640001 -7.7620001 -0.70599997 4278190335
9.6459999 -7.7779999 -0.71200001 4278190335
9.7279997 -7.8189998 -0.71799999 4278190335
9.559 -7.6339998 -0.69999999 4278190335
4.368 -3.484 -0.20999999 4278190335
4.3759999 -3.4679999 -0.20999999 4278190335
4.3670001 -3.438 -0.208 4278190335
9.5080004 -7.329 -0.68300003 4278190335
9.54 -7.3060002 -0.68400002 4278190335
9.533 -7.2529998 -0.68099999 4278190335
9.5220003 -7.198 -0.67799997 4278190335
9.5209999 -7.1500001 -0.676 4278190335
9.5340004 -7.1129999 -0.67500001 4278190335
9.5159998 -7.053 -0.671 4278190335
9.4899998 -7.0110002 -0.66799998 4278190335
9.5089998 -6.9790001 -0.66799998 4278190335
9.5109997 -6.9349999 -0.66600001 4278190335
9.5170002 -6.8930001 -0.66399997 4278190335
9.4879999 -6.8270001 -0.66000003 4278190335
9.6280003 -6.882 -0.671 4278190335
9.4899998 -6.7389998 -0.65600002 4278190335
9.8529997 -6.9720001 -0.68800002 4278190335
9.5120001 -6.6869998 -0.65499997 4278190335
9.4820004 -6.6220002 -0.65100002 4278190335
9.5139999 -6.5999999 -0.65200001 4278190335
9.4779997 -6.5310001 -0.64700001 4278190335
9.4879999 -6.494 -0.64600003 4278190335
9.4619999 -6.4549999 -0.64200002 4278190335
9.4619999 -6.4120002 -0.64099997 4278190335
9.4729996 -6.375 -0.63999999 4278190335
9.4659996 -6.3280001 -0.63700002 4278190335
9.4759998 -6.2909999 -0.63700002 4278190335
9.4689999 -6.244 -0.634 4278190335
9.4580002 -6.1950002 -0.63200003 4278190335
9.4659996 -6.1789999 -0.63099998 4278190335
9.4440002 -6.1220002 -0.62800002 4278190335
9.4399996 -6.0770001 -0.62599999 4278190335
9.4469995 -6.04 -0.625 4278190335
9.4759998 -6.0170002 -0.62599999 4278190335
9.4709997 -5.9720001 -0.62300003 4278190335
9.5209999 -5.9819999 -0.62699997 4278190335
9.5450001 -5.9559999 -0.62699997 4278190335
9.5939999 -5.9439998 -0.63 4278190335
9.6230001 -5.921 -0.63099998 4278190335
9.6990004 -5.9260001 -0.63599998 4278190335
9.7449999 -5.9120002 -0.63800001 4278190335
9.7840004 -5.8930001 -0.63999999 4278190335
9.823 -5.895 -0.64300001 4278190335
9.9130001 -5.9070001 -0.64899999 4278190335
9.9820004 -5.9050002 -0.653 4278190335
10.019 -5.8850002 -0.65499997 4278190335
10.106 -5.8930001 -0.66100001 4278190335
10.122 -5.8600001 -0.66000003 4278190335
10.192 -5.8569999 -0.66500002 4278190335
10.265 -5.8779998 -0.67000002 4278190335
10.429 -5.928 -0.68199998 4278190335
10.464 -5.9039998 -0.68400002 4278190335
10.503 -5.8829999 -0.68599999 4278190335
10.596 -5.8909998 -0.69199997 4278190335
10.671 -5.8889999 -0.69700003 4278190335
10.787 -5.9089999 -0.70499998 4278190335
10.841 -5.9159999 -0.708 4278190335
10.891 -5.8990002 -0.71100003 4278190335
10.96 -5.8920002 -0.71499997 4278190335
11.035 -5.8870001 -0.72000003 4278190335
11.117 -5.8860002 -0.72500002 4278190335
11.171 -5.869 -0.72799999 4278190335
11.265 -5.8959999 -0.73500001 4278190335
11.333 -5.8860002 -0.73900002 4278190335
11.39 -5.8709998 -0.74299997 4278190335
11.487 -5.875 -0.74900001 4278190335
11.52 -5.8460002 -0.75 4278190335
11.636 -5.8590002 -0.75800002 4278190335
11.695 -5.842 -0.76200002 4278190335
11.844 -5.8930001 -0.773 4278190335
11.939 -5.8940001 -0.77999997 4278190335
12.051 -5.902 -0.787 4278190335
12.091 -5.8740001 -0.78899997 4278190335
12.191 -5.875 -0.796 4278190335
12.292 -5.8759999 -0.80199999 4294901760
12.37 -5.8649998 -0.80699998 4294901760
12.46 -5.8839998 -0.81400001 4294901760
12.517 -5.8629999 -0.81699997 4294901760
12.687 -5.8940001 -0.829 4294901760
12.956 -5.9679999 -0.85000002 4294901760
7.8210001 -3.585 -0.43200001 4294901760
7.802 -3.546 -0.43000001 4294901760
7.7849998 -3.5239999 -0.428 4294901760
7.7870002 -3.4960001 -0.42699999 4294901760
7.8460002 -3.4920001 -0.43099999 4294901760
7.8309999 -3.4560001 -0.42899999 4294901760
7.8330002 -3.428 -0.428 4294901760
7.7649999 -3.369 -0.42199999 4294901760
7.7480001 -3.3329999 -0.41999999 4294901760
7.7509999 -3.3199999 -0.41999999 4294901760
7.7519999 -3.2920001 -0.419 4294901760
7.7459998 -3.26 -0.41800001 4294901760
7.7399998 -3.2290001 -0.41600001 4294901760
7.75 -3.2049999 -0.41600001 4294901760
7.7579999 -3.1800001 -0.41600001 4294901760
7.7420001 -3.145 -0.414 4294901760
7.7360001 -3.128 -0.41299999 4294901760
7.7470002 -3.105 -0.41299999 4294901760
7.7420001 -3.075 -0.412 4294901760
7.743 -3.0469999 -0.41100001 4294901760
7.7859998 -3.0350001 -0.414 4294901760
7.7519999 -2.994 -0.41100001 4294901760
7.7509999 -2.98 -0.41 4294901760
8.6960001 -3.3080001 -0.484 4294901760
8.6999998 -3.279 -0.484 4294901760
7.875 -2.9419999 -0.41800001 4294901760
7.7839999 -2.881 -0.41 4294901760
7.777 -2.8499999 -0.40900001 4294901760
7.7800002 -2.8239999 -0.40799999 4294901760
7.7690001 -2.806 -0.40700001 4294901760
7.789 -2.786 -0.40799999 4294901760
7.796 -2.7609999 -0.40799999 4294901760
7.7969999 -2.734 -0.40700001 4294901760
7.8210001 -2.714 -0.40799999 4294901760
7.8200002 -2.687 -0.40799999 4294901760
7.8109999 -2.6559999 -0.40599999 4294901760
8.0640001 -2.6989999 -0.42500001 4294901760
7.8429999 -2.599 -0.40700001 4294901760
7.8610001 -2.5769999 -0.40799999 4294901760
7.8969998 -2.5610001 -0.41 4294901760
7.9070001 -2.5369999 -0.41 4294901760
7.9530001 -2.5239999 -0.41299999 4294901760
7.98 -2.5190001 -0.41499999 4294901760
8.0279999 -2.506 -0.41800001 4294901760
8.0609999 -2.4890001 -0.41999999 4294901760
8.0970001 -2.4719999 -0.42199999 4294901760
8.1370001 -2.4560001 -0.42500001 4294901760
8.1990004 -2.4460001 -0.42899999 4294901760
8.375 -2.4549999 -0.44100001 4294901760
8.9540005 -2.5929999 -0.48500001 4294901760
8.448 -2.4189999 -0.44600001 4294901760
8.9799995 -2.539 -0.486 4294901760
8.9239998 -2.494 -0.48100001 4294901760
8.7639999 -2.4200001 -0.46799999 4294901760
8.7220001 -2.3929999 -0.465 4294901760
8.8450003 -2.3970001 -0.47400001 4294901760
8.8889999 -2.3789999 -0.47600001 4294901760
8.9700003 -2.3699999 -0.48199999 4294901760
9.0240002 -2.3540001 -0.486 4294901760
9.0950003 -2.342 -0.49000001 4294901760
9.1660004 -2.345 -0.49599999 4294901760
9.7019997 -2.3829999 -0.53500003 4294901760
9.6260004 -2.332 -0.528 4294901760
9.7320004 -2.326 -0.53600001 4294901760
13.855 -3.1849999 -0.84600002 4294901760
13.888 -3.1459999 -0.84799999 4294901760
15.643 -3.4890001 -0.98000002 4294901760
15.648 -3.4389999 -0.97899997 4294901760
15.634 -3.3840001 -0.977 4294901760
15.607 -3.3269999 -0.97399998 4294901760
15.64 -3.3080001 -0.97600001 4294901760
15.599 -3.2490001 -0.97299999 4294901760
15.521 -3.1819999 -0.96600002 4294901760
15.304 -3.0869999 -0.949 4294901760
15.349 -3.046 -0.95200002 4278190335
15.169 -2.961 -0.93699998 4278190335
15.562 -2.987 -0.96600002 4278190335
15.529 -2.9549999 -0.963 4278190335
15.452 -2.8900001 -0.95700002 4278190335
15.55 -2.858 -0.96399999 4278190335
15.623 -2.8210001 -0.96799999 4278190335
15.671 -2.779 -0.97100002 4278190335
15.69 -2.7309999 -0.972 4278190335
15.645 -2.698 -0.96799999 4278190335
15.685 -2.654 -0.97100002 4278190335
22.674 -3.7520001 -1.492 4278190335
22.666 -3.677 -1.4910001 4278190335
22.599001 -3.5940001 -1.485 4278190335
22.566999 -3.516 -1.482 4278190335
22.59 -3.447 -1.482 4278190335
22.563 -3.4070001 -1.48 4278190335
22.586 -3.3369999 -1.4809999 4278190335
22.570999 -3.263 -1.479 4278190335
22.476 -3.177 -1.471 4278190335
22.506001 -3.109 -1.473 4278190335
22.622 -3.053 -1.4809999 4278190335
22.601 -3.0139999 -1.479 4278190335
22.458 -2.9230001 -1.467 4278190335
22.445 -2.8499999 -1.466 4278190335
22.496 -2.7839999 -1.469 4278190335
22.558001 -2.72 -1.473 4278190335
22.612 -2.655 -1.476 4278190335
22.583 -2.579 -1.474 4278190335
22.503 -2.5350001 -1.467 4278190335
22.715 -2.4860001 -1.482 4278190335
22.691 -2.411 -1.48 4278190335
22.558001 -2.326 -1.47 4278190335
22.575001 -2.256 -1.47 4278190335
22.785 -2.204 -1.485 4278190335
22.771999 -2.131 -1.484 4278190335
22.809 -2.098 -1.4859999 4278190335
22.879 -2.0320001 -1.4910001 4278190335
22.937 -1.964 -1.495 4278190335
22.761999 -1.878 -1.482 4278190335
22.858999 -1.813 -1.488 4278190335
22.968 -1.749 -1.4960001 4278190335
23.121 -1.688 -1.507 4278190335
23.239 -1.659 -1.515 4278190335
23.290001 -1.589 -1.5190001 4278190335
23.294001 -1.516 -1.5190001 4278190335
23.391001 -1.449 -1.526 4278190335
23.556 -1.3839999 -1.5369999 4278190335
23.766001 -1.322 -1.553 4278190335
23.905001 -1.2920001 -1.563 4278190335
24.013 -1.222 -1.5700001 4278190335
24.052 -1.148 -1.573 4278190335
24.226999 -1.08 -1.586 4278190335
24.625 -1.02 -1.615 4278190335
24.666 -0.94400001 -1.618 4278190335
24.475 -0.85900003 -1.603 4278190335
24.443001 -0.81999999 -1.601 4278190335
24.455 -0.74299997 -1.602 4278190335
24.448 -0.66600001 -1.601 4278190335
24.483 -0.58999997 -1.603 4278190335
24.448999 -0.51300001 -1.601 4278190335
24.385 -0.435 -1.596 4278190335
24.354 -0.396 -1.5930001 4278190335
24.339001 -0.31900001 -1.592 4278190335
24.346001 -0.243 -1.5930001 4278190335
24.336 -0.16599999 -1.592 4278190335
24.325001 -0.090000004 -1.591 4278190335
24.311001 -0.013 -1.59 4278190335
22.353001 0.001 -1.592 4278190335
22.351 0.071000002 -1.592 4278190335
22.362 0.141 -1.5930001 4278190335
22.337999 0.176 -1.591 4278190335
22.327 0.24600001 -1.59 4278190335
22.295 0.31600001 -1.5880001 4278190335
22.292 0.38600001 -1.5880001 4278190335
22.27 0.456 -1.586 4278190335
22.259001 0.52499998 -1.585 4278190335
22.24 0.56 -1.584 4278190335
22.232 0.63 -1.5829999 4278190335
22.252001 0.69999999 -1.585 4278190335
22.24 0.76999998 -1.584 4278190335
22.240999 0.83999997 -1.585 4278190335
22.256001 0.91000003 -1.586 4278190335
22.263 0.98100001 -1.587 4278190335
22.204 1.013 -1.582 4278190335
22.237 1.084 -1.585 4278190335
22.229 1.154 -1.585 4278190335
22.239 1.225 -1.586 4278190335
22.237 1.295 -1.586 4278190335
22.250999 1.3660001 -1.5880001 4278190335
22.274 1.437 -1.59 4278190335
22.299999 1.474 -1.592 4278190335
22.277 1.543 -1.591 4278190335
22.288 1.614 -1.592 4278190335
22.263 1.683 -1.59 4278190335
22.284 1.7539999 -1.592 4278190335
22.294001 1.826 -1.594 4278190335
22.294001 1.896 -1.594 4278190335
22.313 1.933 -1.596 4278190335
22.330999 2.0050001 -1.598 4278190335
22.32 2.075 -1.597 4278190335
22.355 2.1489999 -1.601 4278190335
22.362 2.221 -1.602 4278190335
22.367001 2.2920001 -1.603 4278190335
22.379 2.329 -1.604 4278190335
22.412001 2.404 -1.607 4278190335
22.42 2.4760001 -1.609 4278190335
22.450001 2.55 -1.612 4278190335
22.471001 2.6240001 -1.614 4278190335
22.5 2.6989999 -1.617 4278190335
22.518999 2.773 -1.619 4278190335
22.549 2.813 -1.622 4278190335
22.558001 2.8859999 -1.624 4278190335
22.563999 2.9590001 -1.625 4278190335
22.586 3.0339999 -1.627 4278190335
22.591 3.1070001 -1.628 4278190335
22.599001 3.1800001 -1.63 4278190335
22.624001 3.256 -1.633 4278190335
22.68 3.3010001 -1.638 4278190335
22.691 3.375 -1.64 4278190335
22.705999 3.45 -1.642 4278190335
22.729 3.527 -1.6440001 4278190335
22.745001 3.602 -1.647 4278190335
22.753 3.677 -1.648 4278190335
22.778999 3.7179999 -1.651 4278190335
22.808001 3.796 -1.654 4278190335
22.82 3.872 -1.656 4278190335
22.833 3.948 -1.658 4278190335
22.85 4.0250001 -1.66 4278190335
22.871 4.1020002 -1.663 4278190335
22.882999 4.1789999 -1.665 4278190335
22.908001 4.2210002 -1.668 4278190335
22.926001 4.2979999 -1.67 4278190335
22.961 4.3800001 -1.674 4278190335
22.990999 4.46 -1.678 4278190335
23.028999 4.5430002 -1.682 4278190335
23.033001 4.618 -1.684 4278190335
23.051001 4.698 -1.686 4278190335
23.069 4.7389998 -1.688 4278190335
23.076 4.816 -1.6900001 4278190335
23.101 4.8969998 -1.694 4278190335
23.111 4.9749999 -1.696 4278190335
23.143999 5.0580001 -1.7 4278190335
23.157 5.1370001 -1.702 4278190335
23.177999 5.2179999 -1.705 4278190335
23.184999 5.2579999 -1.706 4278190335
23.200001 5.3379998 -1.709 4278190335
23.224001 5.4200001 -1.712 4278190335
23.24 5.5009999 -1.715 4278190335
23.273001 5.586 -1.719 4278190335
23.33 5.678 -1.725 4278190335
23.391001 5.7309999 -1.7309999 4278190335
23.412001 5.8140001 -1.734 4278190335
23.115 5.8179998 -1.711 4278190335
22.997999 5.8660002 -1.7029999 4278190335
22.943001 5.928 -1.7 4278190335
22.99 6.0170002 -1.706 4278190335
23.055 6.112 -1.7130001 4278190335
23.049999 6.1490002 -1.7130001 4278190335
23.028 6.2210002 -1.7130001 4278190335
23.024 6.2979999 -1.714 4278190335
23.025 6.3759999 -1.716 4278190335
23.004999 6.448 -1.716 4278190335
23.01 6.527 -1.7180001 4278190335
23.011999 6.6059999 -1.72 4278190335
23.011 6.645 -1.721 4278190335
23.040001 6.7319999 -1.725 4278190335
23.051001 6.8140001 -1.728 4278190335
23.072001 6.8990002 -1.7309999 4278190335
23.069 6.9770002 -1.733 4278190335
23.084999 7.0609999 -1.7359999 4278190335
23.087 7.1009998 -1.737 4278190335
23.069 7.1750002 -1.737 4278190335
23.091999 7.2620001 -1.7410001 4278190335
23.113001 7.348 -1.745 4278190335
18.872999 6.0700002 -1.3890001 4278190335
18.747 6.0949998 -1.381 4278190335
18.364 6.0349998 -1.35 4278190335
18.618 6.1500001 -1.372 4278190335
18.648001 6.2249999 -1.376 4278190335
18.77 6.3309999 -1.388 4278190335
18.527 6.3150001 -1.369 4278190335
18.386 6.3319998 -1.359 4278190335
18.386999 6.3959999 -1.3609999 4278190335
18.358999 6.4520001 -1.36 4278190335
18.282 6.4569998 -1.354 4278190335
18.434 6.5749998 -1.369 4278190335
18.271 6.5819998 -1.357 4278190335
17.926001 6.5219998 -1.329 4278190335
18.080999 6.6430001 -1.344 4278190335
18.066 6.7020001 -1.345 4278190335
17.993 6.7069998 -1.34 4278190335
18.034 6.7870002 -1.345 4278190335
18.268 6.9400001 -1.367 4278190335
18.201 6.98 -1.363 4278190335
18.159 7.0289998 -1.3609999 4278190335
18.177999 7.1020002 -1.365 4278190335
18.062 7.1230001 -1.357 4278190335
18.051001 7.151 -1.357 4278190335
18.027 7.2069998 -1.357 4278190335
17.966999 7.2490001 -1.353 4278190335
18.466999 7.5170002 -1.399 4278190335
17.91 7.3569999 -1.352 4278190335
18.049 7.48 -1.3660001 4278190335
18.070999 7.5560002 -1.37 4278190335
17.879 7.5089998 -1.355 4278190335
17.784 7.5349998 -1.349 4278190335
17.74 7.5819998 -1.347 4278190335
17.676001 7.6209998 -1.3430001 4278190335
17.716 7.704 -1.349 4278190335
17.715 7.77 -1.351 4278190335
17.783001 7.8330002 -1.358 4278190335
17.969999 7.9819999 -1.377 4278190335
17.976 8.0530005 -1.3789999 4278190335
18.358 8.2919998 -1.415 4278190335
22.714001 10.339 -1.801 4278190335
18.423 8.4619999 -1.425 4278190335
18.614 8.6199999 -1.4450001 4278190335
17.587 8.1789999 -1.355 4278190335
18.441 8.6459999 -1.433 4278190335
18.351999 8.6750002 -1.428 4278190335
18.341 8.7399998 -1.429 4278190335
18.294001 8.7880001 -1.427 4278190335
18.212 8.8190002 -1.4220001 4278190335
18.17 8.8699999 -1.421 4278190335
18.187 8.9130001 -1.424 4278190335
18.134001 8.9580002 -1.4220001 4278190335
18.107 9.0159998 -1.4220001 4278190335
17.974001 9.0200005 -1.4119999 4278190335
17.969999 9.0889997 -1.415 4278190335
17.886 9.1169996 -1.41 4278190335
17.870001 9.1440001 -1.409 4278190335
17.868 9.2139997 -1.4119999 4278190335
17.777 9.2379999 -1.406 4278190335
17.773001 9.3070002 -1.409 4278190335
17.666 9.3219995 -1.401 4278190335
17.596001 9.3559999 -1.398 4278190335
17.632999 9.4469995 -1.404 4278190335
17.747 9.5430002 -1.416 4278190335
17.781 9.6339998 -1.421 4278190335
17.761999 9.6949997 -1.4220001 4278190335
17.936001 9.8629999 -1.441 4278190335
18.238001 10.104 -1.472 4278190335
17.618999 9.8339996 -1.418 4278190335
21.879999 12.296 -1.813 4278190335
21.937 12.373 -1.8200001 4278190335
17.302 9.8369999 -1.396 4278190335
22.059 12.625 -1.8380001 4278190335
21.989 12.677 -1.835 4278190335
22.062 12.812 -1.846 4278190335
21.965 12.848 -1.841 4278190335
21.723 12.752 -1.8200001 4278190335
21.558001 12.746 -1.808 4278190335
21.485001 12.795 -1.8049999 4278190335
21.049 12.626 -1.768 4278190335
20.806999 12.569 -1.749 4278190335
20.648001 12.562 -1.738 4278190335
20.549 12.591 -1.732 4278190335
20.43 12.562 -1.723 4278190335
20.287001 12.563 -1.7130001 4278190335
20.134001 12.556 -1.7029999 4278190335
19.988001 12.552 -1.693 4278190335
19.830999 12.541 -1.681 4278190335
19.690001 12.539 -1.6720001 4278190335
19.545 12.533 -1.6619999 4278190335
19.426001 12.5 -1.652 4278190335
19.281 12.493 -1.642 4278190335
19.146999 12.491 -1.633 4278190335
19.009001 12.487 -1.624 4278190335
18.863001 12.476 -1.613 4278190335
18.729 12.473 -1.604 4278190335
18.605 12.432 -1.594 4278190335
18.483 12.435 -1.586 4278190335
18.348 12.428 -1.577 4278190335
18.225 12.429 -1.569 4278190335
18.084 12.416 -1.559 4278190335
17.966 12.419 -1.551 4278190335
17.837 12.413 -1.5420001 4278190335
17.731001 12.38 -1.534 4278190335
17.612 12.38 -1.526 4278190335
17.495001 12.38 -1.518 4278190335
17.361 12.368 -1.5089999 4278190335
17.246 12.368 -1.502 4278190335
17.131001 12.367 -1.494 4278190335
16.999001 12.353 -1.485 4278190335
16.907 12.327 -1.478 4278190335
16.794001 12.326 -1.47 4278190335
16.68 12.323 -1.4630001 4278190335
16.556 12.312 -1.454 4278190335
16.427999 12.297 -1.4450001 4278190335
16.298 12.281 -1.436 4278190335
16.198 12.245 -1.428 4278190335
16.077999 12.234 -1.42 4278190335
11.672 8.948 -0.97899997 4278190335
11.623 8.9689999 -0.977 4278190335
11.603 9.0120001 -0.97799999 4278190335
11.576 9.0489998 -0.97799999 4278190335
11.596 9.1239996 -0.98299998 4278190335
15.628 12.324 -1.396 4278190335
15.698 12.46 -1.4069999 4278190335
15.711 12.55 -1.4119999 4278190335
15.665 12.595 -1.4119999 4278190335
15.513 12.554 -1.4 4278190335
15.601 12.705 -1.413 4278190335
15.68 12.851 -1.425 4278190335
15.706 12.914 -1.4299999 4278190335
15.559 12.876 -1.419 4278190335
15.632 13.019 -1.431 4278190335
15.695 13.155 -1.442 4278190335
9.5979996 -8.0270004 -0.80299997 4278190335
9.5769997 -7.9580002 -0.79799998 4278190335
9.6739998 -8.0139999 -0.80699998 4278190335
9.5530005 -7.862 -0.79100001 4278190335
9.5769997 -7.8309999 -0.79100001 4278190335
9.5080004 -7.7249999 -0.78200001 4278190335
9.6409998 -7.783 -0.79299998 4278190335
4.309 -3.438 -0.241 4278190335
4.309 -3.4159999 -0.23999999 4278190335
4.316 -3.4100001 -0.23999999 4278190335
4.3390002 -3.4070001 -0.241 4278190335
9.4960003 -7.3979998 -0.76499999 4278190335
9.4969997 -7.3509998 -0.76200002 4278190335
9.5030003 -7.3080001 -0.76099998 4278190335
9.5039997 -7.2610002 -0.75800002 4278190335
9.4680004 -7.21 -0.75400001 4278190335
9.4729996 -7.1669998 -0.75199997 4278190335
9.4540005 -7.1059999 -0.74800003 4278190335
9.4949999 -7.0900002 -0.75 4278190335
9.5970001 -7.1199999 -0.75800002 4278190335
9.4689999 -6.9780002 -0.74299997 4278190335
9.4420004 -6.9349999 -0.73900002 4278190335
9.467 -6.908 -0.73900002 4278190335
9.4589996 -6.8569999 -0.736 4278190335
9.4569998 -6.809 -0.73400003 4278190335
9.4879999 -6.7870002 -0.73500001 4278190335
9.4720001 -6.73 -0.73100001 4278190335
9.4759998 -6.6890001 -0.72899997 4278190335
9.427 -6.631 -0.72299999 4278190335
9.4329996 -6.5910001 -0.722 4278190335
9.4960003 -6.5910001 -0.72600001 4278190335
9.448 -6.5139999 -0.71899998 4278190335
9.4320002 -6.4590001 -0.71600002 4278190335
9.566 -6.507 -0.727 4278190335
9.4969997 -6.4380002 -0.71899998 4278190335
9.4209995 -6.3439999 -0.70999998 4278190335
9.4160004 -6.2969999 -0.708 4278190335
9.4200001 -6.257 -0.70599997 4278190335
9.4130001 -6.2090001 -0.70300001 4278190335
9.4289999 -6.178 -0.70300001 4278190335
9.4230003 -6.132 -0.70099998 4278190335
9.4359999 -6.119 -0.70099998 4278190335
9.408 -6.059 -0.69700003 4278190335
9.441 -6.0380001 -0.69800001 4278190335
9.4060001 -5.974 -0.69300002 4278190335
9.4280005 -5.947 -0.69300002 4278190335
9.4689999 -5.9310002 -0.69499999 4278190335
9.5139999 -5.9180002 -0.69800001 4278190335
9.5439997 -5.9159999 -0.69999999 4278190335
9.5889997 -5.902 -0.70200002 4278190335
9.6499996 -5.8979998 -0.70599997 4278190335
9.6009998 -5.8260002 -0.69999999 4278190335
9.7349997 -5.8660002 -0.71100003 4278190335
9.7840004 -5.8540001 -0.71399999 4278190335
9.8590002 -5.8569999 -0.71899998 4278190335
9.8459997 -5.829 -0.71700001 4278190335
9.967 -5.8579998 -0.72600001 4278190335
10.03 -5.8530002 -0.73100001 4278190335
10.102 -5.8530002 -0.73500001 4278190335
10.169 -5.849 -0.74000001 4278190335
10.244 -5.8499999 -0.745 4278190335
10.345 -5.8860002 -0.75400001 4278190335
10.365 -5.855 -0.75400001 4278190335
10.444 -5.8559999 -0.759 4278190335
10.555 -5.875 -0.76800001 4278190335
10.652 -5.8850002 -0.77499998 4278190335
10.89 -5.973 -0.79500002 4278190335
10.848 -5.9050002 -0.79000002 4278190335
10.866 -5.8930001 -0.79000002 4278190335
10.945 -5.8920002 -0.796 4278190335
11.155 -5.961 -0.81400001 4278190335
11.056 -5.8629999 -0.80299997 4278190335
11.178 -5.8829999 -0.81199998 4278190335
11.234 -5.8670001 -0.81599998 4278190335
11.274 -5.8429999 -0.81800002 4278190335
11.343 -5.8569999 -0.82300001 4278190335
11.407 -5.8449998 -0.82700002 4278190335
11.537 -5.8660002 -0.83700001 4278190335
11.606 -5.855 -0.84200001 4278190335
11.679 -5.8460002 -0.847 4278190335
11.824 -5.8730001 -0.85799998 4278190335
11.871 -5.8730001 -0.861 4278190335
11.93 -5.8559999 -0.86500001 4278190335
12.054 -5.8699999 -0.87400001 4278190335
12.143 -5.8660002 -0.88099998 4278190335
12.229 -5.8610001 -0.88700002 4294901760
12.345 -5.869 -0.89499998 4294901760
12.475 -5.8829999 -0.90499997 4294901760
12.343 -5.7969999 -0.89300001 4294901760
10.236 -3.5799999 -0.66900003 4294901760
10.239 -3.5450001 -0.66799998 4294901760
8.9849997 -2.6400001 -0.55000001 4294901760
8.993 -2.6270001 -0.55000001 4294901760
8.9870005 -2.595 -0.54900002 4294901760
8.967 -2.4979999 -0.546 4294901760
9.6379995 -2.299 -0.59399998 4294901760
13.825 -3.1489999 -0.93599999 4294901760
14.119 -3.1689999 -0.95999998 4294901760
15.419 -3.4130001 -1.066 4294901760
15.414 -3.234 -1.062 4294901760
13.494 -2.7839999 -0.90399998 4294901760
15.257 -3.1010001 -1.048 4294901760
15.36 -3.072 -1.056 4294901760
15.18 -2.9860001 -1.04 4278190335
15.048 -2.911 -1.029 4278190335
15.014 -2.855 -1.025 4278190335
15.101 -2.8469999 -1.0319999 4278190335
15.337 -2.842 -1.05 4278190335
15.181 -2.7639999 -1.0369999 4278190335
15.604 -2.7909999 -1.071 4278190335
15.711 -2.7590001 -1.079 4278190335
15.712 -2.7090001 -1.0779999 4278190335
15.816 -2.701 -1.086 4278190335
15.661 -2.6240001 -1.073 4278190335
15.677 -2.576 -1.074 4278190335
15.766 -2.54 -1.08 4278190335
21.466999 -3.3989999 -1.543 4278190335
21.537001 -3.3399999 -1.548 4278190335
21.565001 -3.2750001 -1.549 4278190335
21.704 -3.2620001 -1.5599999 4278190335
21.785 -3.204 -1.566 4278190335
21.805 -3.1370001 -1.566 4278190335
21.811001 -3.0680001 -1.566 4278190335
21.851999 -3.0039999 -1.569 4278190335
21.909 -2.9419999 -1.572 4278190335
21.931999 -2.875 -1.574 4278190335
21.974001 -2.845 -1.577 4278190335
21.989 -2.777 -1.577 4278190335
22.021 -2.711 -1.579 4278190335
22.039 -2.6429999 -1.58 4278190335
22.035999 -2.572 -1.579 4278190335
22.038 -2.5020001 -1.5779999 4278190335
22.030001 -2.431 -1.577 4278190335
22.049 -2.398 -1.5779999 4278190335
22.070999 -2.3299999 -1.58 4278190335
22.096001 -2.263 -1.581 4278190335
22.108999 -2.194 -1.581 4278190335
22.135 -2.1270001 -1.5829999 4278190335
22.152 -2.0580001 -1.584 4278190335
22.165001 -2.0239999 -1.585 4278190335
22.163 -1.954 -1.584 4278190335
22.171 -1.8839999 -1.584 4278190335
22.179001 -1.8150001 -1.584 4278190335
22.205999 -1.747 -1.586 4278190335
22.205999 -1.677 -1.586 4278190335
22.201 -1.6059999 -1.585 4278190335
22.201 -1.571 -1.585 4278190335
22.228001 -1.503 -1.586 4278190335
22.201 -1.431 -1.584 4278190335
22.177999 -1.359 -1.582 4278190335
22.167999 -1.289 -1.58 4278190335
22.18 -1.22 -1.581 4278190335
22.534 -1.204 -1.609 4278190335
22.665001 -1.14 -1.62 4278190335
22.650999 -1.068 -1.618 4278190335
22.534 -0.991 -1.609 4278190335
22.517 -0.92000002 -1.607 4278190335
22.504 -0.84799999 -1.6059999 4278190335
22.490999 -0.77700001 -1.604 4278190335
22.496 -0.74199998 -1.605 4278190335
22.492001 -0.671 -1.604 4278190335
22.478001 -0.60000002 -1.603 4278190335
22.398001 -0.52700001 -1.596 4278190335
22.408001 -0.45699999 -1.597 4278190335
22.386999 -0.38600001 -1.595 4278190335
22.382 -0.31600001 -1.595 4278190335
22.365 -0.28 -1.5930001 4278190335
22.360001 -0.20999999 -1.5930001 4278190335
22.35 -0.14 -1.592 4278190335
22.334999 -0.068999998 -1.591 4278190335
20.857 0.0080000004 -1.592 4278190335
20.849001 0.072999999 -1.591 4278190335
20.825001 0.138 -1.589 4278190335
20.804001 0.171 -1.5880001 4278190335
20.806 0.236 -1.5880001 4278190335
20.781 0.301 -1.586 4278190335
20.775999 0.366 -1.585 4278190335
20.773001 0.43200001 -1.585 4278190335
20.773001 0.49700001 -1.585 4278190335
20.757999 0.56199998 -1.584 4278190335
20.743 0.59399998 -1.5829999 4278190335
20.737 0.65899998 -1.5829999 4278190335
20.754999 0.72500002 -1.584 4278190335
20.742001 0.79000002 -1.5829999 4278190335
20.764 0.85600001 -1.585 4278190335
20.753 0.921 -1.585 4278190335
20.747999 0.986 -1.585 4278190335
20.764 1.0190001 -1.586 4278190335
20.753 1.084 -1.585 4278190335
20.749001 1.149 -1.585 4278190335
20.77 1.216 -1.5880001 4278190335
20.775999 1.2819999 -1.5880001 4278190335
20.795 1.349 -1.59 4278190335
20.787001 1.381 -1.59 4278190335
20.778999 1.446 -1.59 4278190335
20.774 1.511 -1.59 4278190335
20.775999 1.643 -1.591 4278190335
20.792999 1.71 -1.5930001 4278190335
20.795 1.776 -1.5930001 4278190335
20.804001 1.8099999 -1.594 4278190335
20.822001 1.877 -1.596 4278190335
20.823999 1.943 -1.597 4278190335
20.837999 2.0109999 -1.599 4278190335
20.865 2.079 -1.602 4278190335
20.868 2.1459999 -1.602 4278190335
20.881001 2.214 -1.604 4278190335
20.878 2.2460001 -1.604 4278190335
20.903999 2.316 -1.607 4278190335
20.905001 2.382 -1.608 4278190335
20.951 2.454 -1.612 4278190335
20.938999 2.52 -1.612 4278190335
20.969 2.5899999 -1.615 4278190335
20.974001 2.6240001 -1.6160001 4278190335
20.982 2.6919999 -1.618 4278190335
20.993 2.7609999 -1.619 4278190335
21.011999 2.8299999 -1.622 4278190335
21.027 2.9000001 -1.624 4278190335
21.052999 2.971 -1.627 4278190335
21.069 3.0409999 -1.6289999 4278190335
21.066 3.0739999 -1.6289999 4278190335
21.084 3.1440001 -1.632 4278190335
21.101999 3.2149999 -1.6339999 4278190335
21.113001 3.2850001 -1.636 4278190335
21.152 3.359 -1.64 4278190335
21.159 3.428 -1.642 4278190335
21.158001 3.4960001 -1.643 4278190335
21.190001 3.536 -1.646 4278190335
21.176001 3.602 -1.646 4278190335
21.187 3.6719999 -1.648 4278190335
21.198999 3.743 -1.65 4278190335
21.204 3.813 -1.651 4278190335
21.233 3.8870001 -1.655 4278190335
21.231001 3.9549999 -1.656 4278190335
21.257999 3.9949999 -1.658 4278190335
21.277 4.0679998 -1.661 4278190335
21.285 4.1389999 -1.663 4278190335
21.298 4.211 -1.665 4278190335
21.319 4.2849998 -1.668 4278190335
21.334999 4.3579998 -1.671 4278190335
21.357 4.3969998 -1.674 4278190335
21.358999 4.4679999 -1.675 4278190335
21.398001 4.546 -1.6799999 4278190335
21.405001 4.618 -1.681 4278190335
21.417 4.691 -1.684 4278190335
21.424 4.763 -1.686 4278190335
21.440001 4.8369999 -1.688 4278190335
21.466999 4.8790002 -1.692 4278190335
21.461 4.9489999 -1.692 4278190335
21.469 5.0219998 -1.694 4278190335
21.493999 5.099 -1.698 4278190335
21.490999 5.1690001 -1.699 4278190335
21.516001 5.2470002 -1.7029999 4278190335
21.516001 5.3189998 -1.704 4278190335
21.521999 5.3559999 -1.706 4278190335
21.535999 5.4310002 -1.7079999 4278190335
21.573999 5.513 -1.7130001 4278190335
21.634001 5.6009998 -1.72 4278190335
21.701 5.6919999 -1.728 4278190335
21.566 5.7280002 -1.717 4278190335
21.337 5.7030001 -1.698 4278190335
21.289 5.7620001 -1.6950001 4278190335
21.284 5.8319998 -1.696 4278190335
21.315001 5.9130001 -1.701 4278190335
21.382999 6.0050001 -1.7079999 4278190335
21.393 6.0799999 -1.711 4278190335
21.431 6.164 -1.716 4278190335
21.431 6.1999998 -1.717 4278190335
19.26 5.6350002 -1.524 4278190335
19.226999 5.691 -1.523 4278190335
19.076 5.711 -1.511 4278190335
18.978001 5.7470002 -1.5039999 4278190335
19.017 5.8239999 -1.5089999 4278190335
18.941 5.8660002 -1.5039999 4278190335
18.677 5.816 -1.4809999 4278190335
18.625 5.8639998 -1.478 4278190335
18.441 5.869 -1.4630001 4278190335
18.316 5.8930001 -1.4529999 4278190335
18.231001 5.9289999 -1.447 4278190335
18.131001 5.9590001 -1.4400001 4278190335
18.094999 5.9790001 -1.437 4278190335
18.077 6.0359998 -1.437 4278190335
18.082001 6.1009998 -1.4400001 4278190335
18.021 6.1430001 -1.436 4278190335
18.062 6.2210002 -1.441 4278190335
17.979 6.2550001 -1.4349999 4278190335
17.914 6.296 -1.431 4278190335
17.927999 6.3330002 -1.434 4278190335
17.882 6.3790002 -1.431 4278190335
17.806999 6.4159999 -1.426 4278190335
17.780001 6.4689999 -1.425 4278190335
17.785999 6.5349998 -1.428 4278190335
17.843 6.6199999 -1.4349999 4278190335
17.875 6.6950002 -1.4400001 4278190335
17.875 6.7280002 -1.441 4278190335
17.806 6.7649999 -1.436 4278190335
17.773001 6.8169999 -1.4349999 4278190335
17.806999 6.8940001 -1.441 4278190335
17.832001 6.9679999 -1.4450001 4278190335
17.819 7.0279999 -1.446 4278190335
17.856001 7.0749998 -1.45 4278190335
17.804001 7.119 -1.447 4278190335
17.76 7.1659999 -1.4450001 4278190335
17.721001 7.2150002 -1.444 4278190335
17.729 7.2839999 -1.447 4278190335
17.768999 7.3649998 -1.4529999 4278190335
17.815001 7.4510002 -1.459 4278190335
17.780001 7.4679999 -1.457 4278190335
17.764 7.527 -1.4579999 4278190335
17.681 7.5580001 -1.452 4278190335
17.780001 7.6669998 -1.464 4278190335
17.747 7.7179999 -1.4630001 4278190335
17.664 7.7480001 -1.457 4278190335
17.525 7.7529998 -1.446 4278190335
17.611 7.8239999 -1.456 4278190335
17.698999 7.9299998 -1.466 4278190335
17.639 7.9699998 -1.4630001 4278190335
17.754 8.0889997 -1.476 4278190335
17.740999 8.151 -1.477 4278190335
17.716999 8.2069998 -1.478 4278190335
17.837999 8.2980003 -1.49 4278190335
17.909 8.3990002 -1.499 4278190335
17.964001 8.4940004 -1.507 4278190335
17.882999 8.5249996 -1.502 4278190335
18.007 8.6540003 -1.516 4278190335
17.903999 8.6739998 -1.5089999 4278190335
17.85 8.717 -1.507 4278190335
17.865 8.7589998 -1.5089999 4278190335
17.844 8.8179998 -1.51 4278190335
17.587999 8.7600002 -1.488 4278190335
17.604 8.8369999 -1.492 4278190335
17.622 8.9160004 -1.497 4278190335
17.656 9.0030003 -1.503 4278190335
17.681 9.0860004 -1.508 4278190335
17.643 9.1009998 -1.506 4278190335
17.59 9.1440001 -1.503 4278190335
17.531 9.1829996 -1.5 4278190335
17.552 9.2650003 -1.505 4278190335
17.573 9.3470001 -1.51 4278190335
17.490999 9.3739996 -1.505 4278190335
17.356001 9.3360004 -1.493 4278190335
17.535999 9.5050001 -1.5140001 4278190335
17.504 9.559 -1.5140001 4278190335
17.639999 9.7049999 -1.53 4278190335
17.583 9.7460003 -1.527 4278190335
17.573999 9.8129997 -1.529 4278190335
17.482 9.8339996 -1.523 4278190335
17.323 9.7799997 -1.5089999 4278190335
17.594999 10.007 -1.539 4278190335
17.572001 10.067 -1.54 4278190335
17.378 10.028 -1.524 4278190335
19.629 11.414 -1.751 4278190335
19.562 11.457 -1.748 4278190335
19.538 11.526 -1.749 4278190335
19.507999 11.549 -1.748 4278190335
19.465 11.606 -1.747 4278190335
19.431 11.669 -1.748 4278190335
19.378 11.72 -1.7460001 4278190335
19.354 11.789 -1.747 4278190335
19.346001 11.868 -1.75 4278190335
19.320999 11.894 -1.749 4278190335
19.273001 11.948 -1.748 4278190335
19.212999 11.995 -1.7460001 4278190335
19.187 12.063 -1.747 4278190335
19.143 12.119 -1.747 4278190335
19.069 12.156 -1.743 4278190335
18.974001 12.179 -1.737 4278190335
18.947001 12.204 -1.7359999 4278190335
18.917999 12.27 -1.737 4278190335
18.872999 12.325 -1.737 4278190335
18.811001 12.369 -1.734 4278190335
18.767 12.424 -1.734 4278190335
18.684999 12.454 -1.729 4278190335
18.573 12.464 -1.722 4278190335
18.452 12.425 -1.711 4278190335
18.344 12.436 -1.704 4278190335
18.226999 12.441 -1.696 4278190335
18.083 12.426 -1.6849999 4278190335
17.959 12.423 -1.676 4278190335
17.837999 12.423 -1.668 4278190335
17.733999 12.391 -1.659 4278190335
17.604 12.383 -1.649 4278190335
17.488001 12.384 -1.641 4278190335
17.362 12.376 -1.632 4278190335
17.232 12.365 -1.622 4278190335
17.125 12.37 -1.615 4278190335
17.011999 12.37 -1.607 4278190335
16.910999 12.337 -1.599 4278190335
16.789 12.328 -1.59 4278190335
16.674999 12.325 -1.582 4278190335
16.558001 12.319 -1.573 4278190335
16.43 12.304 -1.564 4278190335
16.299 12.286 -1.554 4278190335
16.173 12.271 -1.544 4278190335
16.091999 12.249 -1.538 4278190335
11.726 8.9759998 -1.068 4278190335
11.651 8.9759998 -1.063 4278190335
11.621 9.0109997 -1.063 4278190335
11.597 9.0509996 -1.064 4278190335
11.591 9.1049995 -1.066 4278190335
15.61 12.353 -1.51 4278190335
15.699 12.465 -1.522 4278190335
15.719 12.561 -1.529 4278190335
11.4 9.1599998 -1.056 4278190335
11.381 9.2030001 -1.057 4278190335
15.597 12.706 -1.528 4278190335
15.685 12.86 -1.543 4278190335
15.718 12.929 -1.549 4278190335
15.584 12.901 -1.538 4278190335
15.626 13.019 -1.5470001 4278190335
15.681 13.149 -1.558 4278190335
9.6000004 -8.052 -0.87599999 4278190335
9.573 -7.9780002 -0.87 4278190335
9.6070004 -7.9559999 -0.87099999 4278190335
9.5860004 -7.9130001 -0.86799997 4278190335
9.5740004 -7.8520002 -0.86299998 4278190335
9.5240002 -7.7620001 -0.85500002 4278190335
9.5249996 -7.7129998 -0.85299999 4278190335
9.6040001 -7.7270002 -0.85900003 4278190335
9.8149996 -7.8460002 -0.87900001 4278190335
9.5430002 -7.605 -0.84799999 4278190335
4.336 -3.451 -0.27500001 4278190335
4.342 -3.434 -0.27500001 4278190335
4.342 -3.411 -0.27399999 4278190335
4.3270001 -3.378 -0.271 4278190335
9.5530005 -7.3699999 -0.83600003 4278190335
9.592 -7.3520002 -0.838 4278190335
9.4969997 -7.256 -0.82599998 4278190335
9.5690002 -7.2639999 -0.83200002 4278190335
9.5439997 -7.198 -0.82700002 4278190335
9.4899998 -7.1100001 -0.81800002 4278190335
9.5059996 -7.0760002 -0.81800002 4278190335
9.4860001 -7.0149999 -0.81300002 4278190335
9.4750004 -6.9840002 -0.81099999 4278190335
9.4680004 -6.9330001 -0.80800003 4278190335
9.4829998 -6.8979998 -0.80699998 4278190335
9.4639997 -6.8400002 -0.80299997 4278190335
9.474 -6.802 -0.80199999 4278190335
9.4759998 -6.7579999 -0.79900002 4278190335
9.5120001 -6.7389998 -0.801 4278190335
9.4390001 -6.665 -0.792 4278190335
9.4750004 -6.6459999 -0.79400003 4278190335
9.46 -6.5910001 -0.79000002 4278190335
9.4469995 -6.539 -0.787 4278190335
9.4989996 -6.5300002 -0.79000002 4278190335
9.4919996 -6.4809999 -0.787 4278190335
9.5699997 -6.4910002 -0.79299998 4278190335
9.592 -6.4829998 -0.79400003 4278190335
9.4940004 -6.375 -0.78200001 4278190335
9.4250002 -6.2849998 -0.773 4278190335
9.4209995 -6.2399998 -0.76999998 4278190335
9.4250002 -6.2010002 -0.76899999 4278190335
9.5229998 -6.2220001 -0.77700001 4278190335
9.4390001 -6.125 -0.76599997 4278190335
9.4320002 -6.0999999 -0.76499999 4278190335
9.4359999 -6.0599999 -0.76300001 4278190335
9.5120001 -6.0669999 -0.76899999 4278190335
9.4399996 -5.98 -0.75999999 4278190335
9.4639997 -5.9530001 -0.75999999 4278190335
9.5100002 -5.9400001 -0.76300001 4278190335
9.5139999 -5.9219999 -0.76200002 4278190335
9.677 -5.9809999 -0.77700001 4278190335
9.5930004 -5.888 -0.76700002 4278190335
9.6479998 -5.8800001 -0.76999998 4278190335
9.6700001 -5.8509998 -0.77100003 4278190335
9.7919998 -5.8829999 -0.78100002 4278190335
9.8430004 -5.8720002 -0.78399998 4278190335
9.8850002 -5.8759999 -0.78799999 4278190335
9.9790001 -5.8889999 -0.79500002 4278190335
10.03 -5.8769999 -0.79799998 4278190335
10.131 -5.8930001 -0.80699998 4278190335
10.184 -5.881 -0.81 4278190335
10.286 -5.8959999 -0.81800002 4278190335
10.249 -5.8330002 -0.81300002 4278190335
10.376 -5.8829999 -0.824 4278190335
10.455 -5.8850002 -0.82999998 4278190335
10.613 -5.9289999 -0.84399998 4278190335
10.681 -5.9229999 -0.84899998 4278190335
10.781 -5.934 -0.85699999 4278190335
10.749 -5.8730001 -0.852 4278190335
10.842 -5.901 -0.86000001 4278190335
10.924 -5.901 -0.866 4278190335
11.015 -5.9050002 -0.87300003 4278190335
11.093 -5.902 -0.87900001 4278190335
11.171 -5.8990002 -0.88499999 4278190335
11.224 -5.881 -0.88800001 4278190335
11.276 -5.8629999 -0.89099997 4278190335
11.395 -5.902 -0.90200001 4278190335
11.436 -5.8779998 -0.90399998 4278190335
11.497 -5.8639998 -0.90799999 4278190335
11.605 -5.8730001 -0.917 4278190335
11.694 -5.8720002 -0.92400002 4278190335
11.773 -5.8649998 -0.93000001 4278190335
12.087 -5.973 -0.958 4278190335
11.967 -5.8909998 -0.94599998 4278190335
12.124 -5.9200001 -0.95899999 4278190335
12.128 -5.875 -0.95700002 4294901760
12.224 -5.8740001 -0.96499997 4294901760
12.323 -5.8740001 -0.97299999 4294901760
12.451 -5.8870001 -0.98299998 4294901760
12.439 -5.8579998 -0.98100001 4294901760
7.71 -3.612 -0.53100002 4294901760
7.7020001 -3.52 -0.52700001 4294901760
7.6859999 -3.4549999 -0.523 4294901760
7.6900001 -3.4419999 -0.523 4294901760
8.0120001 -3.391 -0.54699999 4294901760
8.0190001 -3.3640001 -0.546 4294901760
8.0150003 -3.3329999 -0.54500002 4294901760
8.0190001 -3.3050001 -0.54500002 4294901760
8.0279999 -3.279 -0.54400003 4294901760
8.0340004 -3.253 -0.54400003 4294901760
8.0430002 -3.227 -0.54400003 4294901760
8.0439997 -3.2119999 -0.54400003 4294901760
8.0690002 -3.1930001 -0.54500002 4294901760
8.8409996 -3.464 -0.61500001 4294901760
7.8270001 -2.9849999 -0.51899999 4294901760
7.8499999 -2.98 -0.52100003 4294901760
7.8629999 -2.9560001 -0.52100003 4294901760
7.7979999 -2.8759999 -0.51300001 4294901760
7.809 -2.852 -0.514 4294901760
7.8119998 -2.826 -0.51300001 4294901760
8.0349998 -2.75 -0.52899998 4294901760
8.0530005 -2.7279999 -0.52999997 4294901760
8.059 -2.7160001 -0.52999997 4294901760
8.9289999 -2.6059999 -0.59899998 4294901760
8.7860003 -2.5339999 -0.58499998 4294901760
8.3739996 -2.3599999 -0.54699999 4294901760
8.5039997 -2.339 -0.55699998 4294901760
8.6110001 -2.3239999 -0.56599998 4294901760
8.7299995 -2.3269999 -0.57599998 4294901760
8.7930002 -2.3139999 -0.58099997 4294901760
8.8579998 -2.3010001 -0.58600003 4294901760
8.927 -2.289 -0.59100002 4294901760
9.0150003 -2.2809999 -0.59799999 4294901760
9.0930004 -2.2850001 -0.60500002 4294901760
9.1870003 -2.2780001 -0.61299998 4294901760
9.3990002 -2.267 -0.63 4294901760
9.5340004 -2.2679999 -0.64099997 4294901760
9.8380003 -2.3069999 -0.66799998 4294901760
9.8190002 -2.2539999 -0.66500002 4294901760
9.8929996 -2.237 -0.671 4294901760
9.8470001 -2.1949999 -0.66600001 4294901760
9.8299999 -2.0780001 -0.66299999 4294901760
14.809 -2.9719999 -1.097 4294901760
14.822 -2.9260001 -1.098 4294901760
13.743 -2.6700001 -1.003 4278190335
15.093 -2.8800001 -1.12 4278190335
14.995 -2.8380001 -1.1109999 4278190335
15.106 -2.809 -1.12 4278190335
15.095 -2.7579999 -1.118 4278190335
14.896 -2.674 -1.1 4278190335
15.128 -2.6659999 -1.12 4278190335
15.309 -2.648 -1.135 4278190335
15.276 -2.5929999 -1.131 4278190335
15.54 -2.612 -1.154 4278190335
15.621 -2.575 -1.16 4278190335
15.611 -2.523 -1.158 4278190335
15.615 -2.474 -1.158 4278190335
15.63 -2.4260001 -1.159 4278190335
